306,353,405,430,473,441,399,435,440,614,486,595,369,335,293,277,266,254,249,260,271,282,288,301,318,345,417,493,330,196,148,92,97,98,96,95,95,97,94,97,167,213,238,266,274,275,273,267,269,272,279,294,306,336,441,347,315,300,290,306,333,346,375,377,386,403,424,401,501,447,468,487,511,534,547,592,759,870,1057,985,835,763,705,696,660,642,640,632,625,617,615,616,620,632,637,643,652,659,664,667,666,661,664,669,674,684,694,713,726,741,756,769,787,813,812,832,830,813,832,818,774,752,769,722,687,661,587,633,653,710,724,727,769,811,842,937,955,835,925,834,801,900,734,631,565,-32768,526,-32768,594,515,589,603,604,637,612,647,653,663,701,713,846,891,1080,1013,776,913,936,1144,1280,1132,1124,1186,1332,1246,1082,1007,882,726,642,592,688,679,809,896,1099,1253,1201,1200,1219,1263,1472,1837,1794,1426,949,836,743,744,805,884,969,1013,1130,1280,1337,1340,1332,1588,1783,1582,1555,1590,1795,1838,1676,2004,1950,1414,1266,1482,1465,1759,1692,1679,1699,1682,1572,1571,1461,1221,1194,1794,1744,1464,1654,1599,1559,1460,1297,1599,1663,1752,1686,1640,1671,1652,1795,1659,1522,1387,1526,1582,1512,1508,1494,1561,1599,1768,1696,1761,1806,1834,1829,1844,1759,1722,1599,1804,1775,1891,1854,1937,2032,2120,2125,2183,2257,2265,2540,2662,2728,2770,2843,2941,2879,2878,2827,2882,2747,-32768,2784,2751,2697,2630,2684,2713,2730,2672,2605,2536,2573,2569,2589,2687,2739,2800,2888,2615,2431,2419,2404,2416,2450,2394,2283,2313,2300,2190,2158,2132,2188,2175,2091,2088,2248,2391,2096,2251,2128,2156,2049,2005,1949,1931,2055,2055,2120,2177,2254,2445,2404,2451,2542,2447,2484,2350,2353,2269,2166,2114,2080,2069,2070,2067,2071,2070,2067,2068,2093,2096,2112,2202,2114,2235,2394,2276,2135,2271,2237,2238,2308,2413,2388,2499,2723,2575,2388,2357,2263,2222,2289,2225,2173,2139,2170,2200,2181,2239,2306,2250,2356,2365,2391,2521,2433,2359,2160,2076,2085,2101,1995,1891,1831,1790,1766,1713,1684,1644,1607,1576,1586,1567,1540,1535,1514,1498,1482,1457,1440,1410,1414,1373,1366,1377,1433,1531,1517,1474,1460,1462,1457,1461,1462,1455,1456,1455,1443,1440,1441,1437,1435,1439,1438,1447,1464,1494,1540,1595,1661,1778,2034,2321,1941,1712,1675,1783,1651,1675,1701,1716,1691,1617,1650,1610,1540,1513,1605,1584,1644,1619,1595,1569,1573,1567,1590,1625,1643,1661,1682,1710,1727,1752,1780,1817,1868,1917,2021,2380,2484,2253,2251,2235,2153,2145,2196,2440,2553,2282,2497,2572,2845,2919,2605,2872,2714,2434,2470,2270,2370,2219,2067,1885,1703,1677,1640,1623,1626,1593,1541,1542,1552,1487,1429,1402,1360,1358,1360,1341,1310,1313,1266,1263,1251,1261,1252,1254,1292,1296,1276,1228,1202,1214,1164,1148,1132,1128,1126,1107,1101,1090,1099,1122,1102,1088,1073,1133,1140,1148,1151,1161,1163,1168,1168,1175,1186,1197,1194,1186,1174,1182,1185,1196,1183,1196,1210,1224,1224,1231,1241,1238,1241,1250,1268,1269,1282,1282,1291,1300,1308,1318,1338,1325,1304,1283,1275,1287,1298,1294,1290,1291,1294,1285,1282,1278,1273,1268,1262,1257,1249,1243,1235,1233,1227,1220,1216,1216,1211,1207,1201,1196,1190,1190,1186,1187,1175,1179,1170,1172,1166,1164,1159,1160,1156,1146
367,421,497,520,559,453,408,398,417,409,412,363,345,302,284,268,258,244,238,248,256,265,268,283,297,304,314,298,249,196,146,110,95,97,96,96,96,96,97,96,112,199,241,260,275,277,274,266,263,260,270,282,287,308,327,319,296,282,286,324,363,359,387,388,414,514,480,410,422,438,456,475,492,509,520,540,579,637,705,1124,778,819,737,822,695,678,669,655,640,633,631,627,628,624,628,633,638,643,648,651,652,661,667,671,675,682,692,704,719,733,743,757,770,781,803,813,808,800,816,763,744,733,728,703,657,599,653,662,711,725,766,781,860,893,852,895,929,923,928,993,908,799,725,668,543,563,541,515,551,573,777,648,679,667,632,644,679,678,720,793,870,918,1321,918,870,1170,1367,1263,1180,1242,1164,1213,1379,1111,1242,856,891,712,572,559,653,747,947,1188,1280,1341,1452,1413,1204,1378,1518,1763,1849,1513,1003,843,755,761,858,844,964,1083,1232,1419,1559,1520,1482,1686,1771,1699,1583,1642,1764,1945,2071,1906,1853,1337,1559,1584,1816,1746,1702,1708,1693,1593,1467,1348,1347,1151,1363,1781,1756,1578,1677,1693,1531,1503,1532,1298,1594,1687,1738,1696,1688,1861,1704,1568,1608,1418,1467,1529,1554,1512,1618,1548,1618,1791,1748,1800,1830,1896,1912,1928,1849,1816,1684,1788,1784,1919,1922,2045,2130,2333,2330,2345,2302,2510,2471,2429,2564,2681,3004,3047,2983,2919,2856,2941,2867,2843,2836,2757,2728,2747,2744,2812,2791,2687,2571,2516,2600,2617,2720,2738,2774,2832,2541,2458,2459,2494,2499,2474,2527,2350,2404,2365,2351,2245,2229,2217,2130,2113,2054,2054,2058,2050,2170,2142,2238,2265,2089,2102,2000,1971,1953,1983,2073,2089,2187,2271,2382,2627,2521,2668,2738,2634,2413,2316,2234,2185,2072,2071,2071,2071,2070,2069,2069,2067,2072,2073,2076,2084,2084,2103,2093,2096,2153,2279,2224,2275,2375,2403,2615,2702,2588,2447,2367,2299,2289,2199,2225,2267,2184,2197,2189,2167,2232,2190,2336,2289,2333,2393,2492,2467,2461,2399,2210,2184,2103,2100,1992,1883,1831,1784,1759,1722,1687,1649,1632,1616,1611,1623,1576,1559,1546,1529,1509,1490,1469,1443,1426,1389,1370,1373,1392,1480,1496,1464,1466,1461,1470,1466,1457,1460,1460,1455,1445,1445,1444,1439,1441,1440,1449,1458,1475,1505,1548,1594,1663,1763,2049,2157,1810,1801,1735,1707,1734,1750,1718,1751,1649,1643,1669,1608,1569,1538,1610,1607,1684,1710,1628,1596,1586,1575,1592,1609,1631,1658,1675,1701,1723,1742,1783,1902,2018,1993,2022,2325,2428,2284,2235,2103,2067,2066,2147,2450,2587,2601,2149,2363,2663,2429,2332,2367,2284,2256,2118,2095,2124,2024,1872,1807,1720,1653,1602,1617,1614,1552,1547,1479,1497,1468,1448,1400,1371,1367,1344,1317,1303,1298,1306,1277,1251,1254,1231,1228,1256,1255,1277,1232,1226,1173,1168,1160,1144,1132,1117,1132,1104,1101,1101,1088,1108,1086,1077,1123,1140,1146,1163,1168,1165,1171,1178,1174,1182,1187,1185,1191,1177,1190,1203,1205,1191,1191,1207,1221,1232,1234,1243,1252,1248,1254,1261,1269,1278,1285,1292,1315,1318,1327,1343,1322,1306,1294,1298,1303,1306,1301,1306,1303,1297,1295,1283,1280,1276,1266,1259,1256,1249,1245,1236,1231,1227,1223,1216,1215,1212,1210,1204,1203,1196,1192,1191,1182,1178,1175,1169,1171,1171,1165,1162,1157,1153,1152
429,505,572,687,1054,502,404,385,387,380,363,343,322,298,279,257,249,238,234,235,239,243,252,260,269,276,256,234,211,185,157,132,94,100,93,96,97,95,102,100,184,218,262,289,279,275,258,252,244,248,257,268,270,279,292,288,276,276,291,310,325,345,371,399,435,474,456,422,418,430,447,464,477,490,506,529,557,586,614,659,715,737,816,836,861,733,701,680,663,652,647,643,641,640,638,632,635,638,644,647,652,659,666,675,680,682,691,700,712,723,734,746,759,768,778,790,788,807,775,763,722,713,690,663,640,643,681,722,747,769,786,841,866,978,902,1008,961,960,872,850,881,837,656,727,576,570,535,521,523,524,837,823,718,703,656,671,799,713,769,919,1229,1302,1372,1000,917,1045,1305,1294,1234,1186,1109,1292,1252,944,1108,789,704,639,560,645,714,721,968,1029,1157,1436,1472,1330,1214,1344,1274,1493,1698,1545,978,840,818,757,818,913,1065,1254,1447,1429,1929,1916,1960,1961,1798,1684,1596,1717,1803,1820,1886,1846,1673,1293,1367,1751,1860,1700,1646,1643,1614,1539,1518,1528,1418,1394,1538,1815,1742,1648,1649,1778,1559,1588,1666,1432,1515,1685,1914,1828,1913,1761,1702,1560,1536,1515,1427,1525,1537,1562,1607,1508,1545,1746,1699,1753,1912,1928,2019,1910,1878,1798,1723,1643,1825,1918,1967,2129,2370,2359,2380,2451,2429,2567,2673,2628,2790,2959,2923,2926,3046,3086,3075,3112,3015,2863,2821,2784,2783,2745,2740,2798,2727,2667,2585,2643,2648,2571,2687,2638,2684,2698,2502,2576,2560,2803,2610,2591,2367,2485,2429,2383,2432,2314,2224,2205,2136,2114,2220,2236,2387,2383,2533,2366,2552,2200,2213,2100,2100,2073,1997,1962,2025,2134,2193,2262,2314,2428,2595,2483,2606,2700,2575,2467,2352,-32768,2114,2072,2070,2070,2069,2069,2067,2067,2070,2074,2075,2077,2075,2076,2078,2081,2244,2203,2196,2388,2461,2527,2613,2640,2484,2407,2354,2320,2230,2197,2202,2217,2191,2221,2212,2234,2275,2294,2361,2369,2428,2510,2627,2602,2731,2678,2260,2127,2043,2002,1937,1874,1841,1796,1833,1719,1682,1668,1646,1657,1680,1657,1608,1593,1574,1559,1537,1514,1494,1485,1446,1411,1382,1370,1379,1422,1465,1463,1468,1470,1470,1459,1461,1463,1462,1461,1449,1450,1448,1448,1444,1446,1456,1472,1489,1517,1554,1600,1657,1738,1878,2086,1963,1909,1771,1872,1823,1773,1754,1708,1693,1709,1685,1649,1603,1569,1629,1614,1672,1680,1636,1615,1597,1587,1596,1603,1641,1656,1673,1696,1719,1767,1907,2366,2362,2226,2136,2310,2202,2215,2098,2038,1978,2002,2083,2395,2422,2138,2041,2095,2109,2112,2113,2107,2092,2049,1988,2003,1893,1835,1769,1714,1693,1634,1613,1600,1539,1525,1515,1470,1461,1457,1422,1394,1392,1357,1340,1344,1321,1340,1317,1287,1272,1249,1254,1246,1215,1242,1258,1207,1180,1164,1140,1135,1129,1111,1104,1113,1106,1101,1103,1085,1090,1088,1081,1124,1149,1159,1184,1181,1181,1188,1187,1177,1185,1185,1188,1194,1200,1208,1198,1210,1208,1199,1203,1213,1228,1231,1230,1251,1258,1254,1263,1270,1287,1301,1305,1323,1350,1356,1331,1318,1322,1323,1333,1323,1319,1315,1312,1307,1305,1295,1287,1282,1274,1269,1261,1256,1251,1246,1242,1232,1232,1225,1219,1219,1215,1209,1209,1205,1200,1195,1186,1185,1179,1177,1169,1174,1166,1163,1165,1159,1156,1153
510,654,862,1042,821,446,388,374,389,379,356,334,311,288,264,248,238,230,225,222,227,230,244,262,282,294,275,249,235,208,172,158,124,98,99,98,98,98,100,99,111,201,243,400,273,246,229,220,221,228,238,254,252,256,262,258,267,289,303,316,328,348,364,385,421,458,452,436,426,429,441,454,466,480,498,514,539,564,592,630,667,753,1112,998,1065,812,763,718,686,676,670,664,658,654,655,649,646,643,644,648,656,667,672,683,688,691,695,699,707,716,726,740,750,761,766,838,766,805,759,761,709,684,670,641,635,677,722,748,788,823,844,907,946,958,970,1120,1071,954,857,853,798,776,807,603,653,585,555,592,558,600,515,641,706,762,691,858,760,796,863,995,1086,1142,1249,1321,928,942,1148,1100,1022,1071,1128,1320,1105,979,871,674,591,569,657,742,816,859,872,1049,1163,1561,1651,1405,1384,1351,1351,1070,1205,1160,883,853,750,792,860,926,1090,1491,1604,1723,1760,1807,1785,1791,1835,1707,1703,1751,1823,1887,1901,1814,1390,1530,1466,1809,1751,1692,1631,1585,1611,1588,1554,1482,1321,1411,1620,1763,1692,1628,1622,1683,1754,1707,1708,1375,1541,1488,1567,1637,1910,1881,1701,1573,1572,1515,1463,1541,1573,1626,1643,1591,1561,1639,1656,1721,1882,1901,2013,1978,1899,1872,1754,1661,1682,1915,1918,2074,2146,2333,2376,2412,2564,2549,2568,2668,2776,3012,3102,2964,3092,3052,3294,3283,3061,2895,2761,2745,2729,2749,2741,2744,2757,2699,2670,2674,2720,2619,2653,2739,2877,2849,2843,2557,2810,3013,2930,2511,2475,2540,2501,2490,2467,2378,2260,2192,2173,2215,2176,2364,2454,2556,2445,2440,2303,2366,2224,2159,2169,2097,2039,2002,1992,2076,2163,2235,2388,2444,2447,2511,2553,2451,2398,2367,2596,2616,2218,2071,2068,2070,2070,2067,2068,2072,2074,2075,2073,2076,2078,2076,2079,2082,2233,2132,2181,2355,2502,2620,2643,2785,2555,2418,2345,2259,2212,2205,2183,2178,2216,2233,2248,2255,2327,2396,2399,2448,2450,2466,2562,2669,3009,2671,2374,2188,2088,2002,1938,1884,1842,1801,1765,1720,1685,1681,1671,1732,1888,1682,1645,1619,1611,1588,1565,1543,2297,1497,1469,1450,1424,1372,1372,1393,1467,1460,1454,1454,1455,1459,1465,1470,1450,1456,1458,1455,1454,1454,1454,1457,1465,1480,1500,1525,1556,1592,1647,1727,1876,2377,2200,2157,2073,2095,1893,1801,1799,1773,1744,1767,1723,1667,1627,1594,1610,1671,1699,1749,1726,1651,1611,1608,1615,1612,1676,1672,1691,1704,1749,1807,2010,2370,2732,2463,2221,2210,2208,2104,2060,1990,1988,1943,1986,1977,1980,1974,1973,1959,1956,1940,1945,1940,1944,1914,1899,1881,1838,1730,1692,1681,1669,1627,1580,1533,1510,1537,1495,1460,1462,1438,1402,1397,1413,1359,1334,1348,1315,1298,1291,1287,1269,1268,1254,1249,1223,1223,1206,1210,1188,1213,1186,1146,1127,1120,1114,1101,1096,1097,1088,1097,1083,1080,1082,1111,1141,1151,1165,1200,1206,1223,1203,1179,1188,1188,1195,1206,1209,1208,1197,1214,1199,1204,1219,1215,1227,1240,1230,1236,1256,1257,1270,1277,1291,1323,1332,1342,1354,1350,1340,1324,1325,1342,1338,1334,1331,1325,1320,1314,1305,1299,1289,1281,1277,1270,1268,1257,1254,1248,1240,1238,1232,1227,1223,1217,1214,1215,1212,1207,1205,1197,1193,1187,1182,1181,1171,1175,1166,1165,1165,1158,1155,1153
619,680,892,888,532,408,376,362,395,376,347,326,301,276,251,238,223,218,219,219,215,232,253,275,302,318,315,326,280,237,203,220,212,129,99,99,99,98,100,99,101,164,195,226,414,209,199,185,196,204,213,222,235,241,246,263,277,295,310,324,336,353,368,384,406,423,443,447,439,443,444,451,460,473,489,510,531,546,577,608,627,703,937,1229,1474,957,934,826,740,712,697,687,678,676,673,664,663,656,653,653,658,667,676,687,695,701,763,716,707,713,722,731,742,750,754,763,757,740,728,703,689,677,677,638,672,710,745,821,864,891,937,1017,1075,1004,1140,1106,1169,1148,1052,879,794,727,677,705,707,608,595,609,572,676,569,536,578,656,646,730,757,817,787,965,917,965,1127,1267,1241,1016,1061,1138,1068,1132,1197,1362,1259,1038,781,691,600,651,658,768,914,791,1088,1177,1379,1638,1571,1573,1580,1429,1394,1256,1077,988,931,867,755,835,904,1070,1293,1542,1751,1719,1736,1748,1739,1694,1685,1642,1628,1747,1795,1875,1827,1664,1506,1639,1475,1583,1660,1691,1628,1603,1510,1536,1544,1460,1327,1366,1686,1719,1642,1632,1727,1819,1825,1555,1565,1499,1523,1559,1595,1572,1661,1911,1694,1653,1573,1518,1444,1559,1606,1633,1798,1610,1696,1657,1703,1680,1802,1906,1981,2060,1989,1866,1781,1658,1826,1825,1890,1922,2079,2167,2264,2419,2447,2550,2635,2693,2805,2831,2918,3220,3194,3257,3410,3209,2948,2902,2940,2949,2755,2786,2835,2737,2700,2711,2683,2676,2634,2671,2702,2835,2533,2905,2724,2617,3006,2996,2981,2570,2555,2631,2496,2529,2528,2366,2253,2191,2179,2207,2157,2253,2339,2460,2441,2384,2426,2410,2190,2367,2297,2164,2005,2058,2003,2007,2075,2140,2269,2557,2606,2561,2390,2322,2271,2244,2228,2209,2136,2085,2076,2067,2065,2068,2072,2075,2074,2073,2076,2074,2077,2076,2084,2085,2089,2107,2101,2225,2220,2455,2580,2781,2451,2319,2256,2231,2192,2168,2163,2211,2206,2248,2295,2333,2403,2437,2466,2437,2404,2486,2594,2731,2937,2643,2484,2221,2071,1998,1939,1888,1844,1807,1765,1716,1725,1708,1729,2004,1794,1740,1681,1663,1643,1619,1590,1560,1546,1530,1510,1480,1437,1374,1374,1376,1406,1443,1455,1451,1459,1471,1474,1475,1475,1468,1460,1459,1458,1460,1460,1467,1476,1492,1514,1533,1573,1609,1644,1737,2081,2353,2272,2190,2162,2019,1891,1835,1812,1865,1828,1886,1819,1696,1649,1625,1615,1714,1712,1767,1726,1679,1627,1621,1619,1623,1637,1696,1707,1729,1796,1892,1979,2616,2593,2676,2344,2166,2106,2078,2035,2023,1976,1920,1903,1903,1898,1920,1904,1901,1869,1866,1872,1855,1850,1816,1821,1780,1750,1708,1663,1623,1644,1593,1559,1597,1568,1496,1469,1470,1455,1419,1427,1413,1395,1348,1332,1312,1324,1323,1350,1321,1288,1305,1259,1256,1238,1221,1233,1267,1250,1218,1185,1149,1134,1120,1109,1097,1094,1099,1094,1082,1080,1083,1083,1110,1133,1153,1161,1179,1206,1211,1200,1183,1203,1201,1205,1214,1217,1208,1205,1211,1230,1197,1209,1226,1229,1249,1243,1240,1244,1247,1271,1284,1292,1313,1331,1361,1355,1355,1345,1332,1334,1348,1345,1338,1336,1329,1323,1316,1307,1295,1292,1283,1277,1273,1268,1261,1255,1250,1244,1238,1228,1228,1227,1219,1215,1212,1209,1207,1200,1199,1193,1192,1183,1181,1183,1173,1171,1167,1157,1153,1156,1149
742,794,594,523,425,381,356,356,389,399,383,367,310,274,245,228,215,209,210,213,220,236,261,291,325,350,378,378,360,289,238,278,336,228,100,99,101,100,100,101,101,101,113,145,246,178,193,223,251,247,258,259,264,268,277,294,300,310,326,335,347,361,374,390,406,418,438,478,457,461,464,457,456,466,485,501,518,536,562,581,604,647,753,970,1043,1233,1154,1098,932,767,733,719,707,698,693,688,680,673,664,664,660,667,680,693,706,712,743,716,714,721,725,734,745,750,753,749,743,732,774,713,710,707,654,651,730,754,777,824,875,953,997,1129,1152,1155,1173,1093,1095,922,980,1012,765,703,756,803,645,696,607,651,651,962,667,560,589,596,629,642,692,867,917,1119,1213,721,937,1106,1134,1204,1216,1209,1089,1233,1328,1218,978,707,665,615,602,636,676,734,840,940,1030,1380,1477,1516,1882,1672,1667,1612,1802,1464,1200,1152,973,899,800,892,932,1256,1390,1436,1698,1725,1711,1795,1670,1657,1662,1623,1713,1782,1813,1853,1782,1735,1549,1406,1422,1589,1765,1760,1680,1586,1644,1468,1372,1392,1363,1404,1591,1715,1653,1666,1719,1871,1706,1643,1533,1393,1570,1702,1705,1742,1855,1750,1650,1621,1569,1514,1488,1535,1592,1754,1808,1639,1673,1766,1689,1791,1724,1775,1897,1910,2026,1954,1822,1782,1818,1893,1965,2110,2162,2383,2268,2316,2568,2578,2679,2710,2741,2872,3158,3102,3324,3116,3097,3080,3078,2979,2904,2840,2789,2754,2751,2710,2704,2689,2694,2746,2744,2721,2789,2469,2498,2808,2500,2761,3055,2989,2674,2571,2546,2583,2556,2606,2635,2547,2316,2278,2238,2203,2209,2200,2333,2359,2581,2377,2363,2365,2359,2284,2198,2162,2208,2242,2210,2130,2056,2148,2160,2220,2277,2271,2302,2253,2211,2187,2165,2144,2112,2090,2086,2071,2076,2072,2075,2076,2074,2073,2078,2079,2081,2084,2082,2086,2085,2091,2089,2137,2166,2218,2329,2309,2264,2220,2336,2228,2173,2153,2147,2169,2218,2281,2357,2380,2468,2527,2472,2517,2548,2565,2614,2900,2954,2640,2628,2304,2113,1994,1938,1878,1836,1797,1769,1763,1753,1756,1807,2038,1795,1729,1726,1701,1679,1645,1610,1587,1615,1585,1558,1521,1451,1387,1369,1376,1381,1453,1460,1459,1467,1489,1508,1514,1506,1479,1462,1464,1460,1467,1467,1472,1484,1501,1522,1548,1593,1609,1645,1720,1974,2230,2175,2065,1995,2011,1880,1877,1921,1890,1915,1859,1792,1730,1665,1657,1636,1664,1755,1797,1747,1712,1648,1645,1637,1635,1644,1670,1695,1742,1767,1809,1920,2117,2234,2306,2260,2179,2150,2101,2020,1978,1951,1922,1907,1898,1892,1899,1864,1854,1845,1840,1848,1858,1860,1810,1785,1712,1688,1660,1660,1609,1581,1584,1576,1552,1557,1529,1493,1473,1448,1450,1435,1406,1364,1344,1332,1326,1334,1345,1316,1296,1300,1316,1319,1306,1265,1258,1269,1256,1230,1222,1183,1155,1133,1122,1104,1102,1093,1098,1099,1107,1116,1101,1082,1098,1137,1163,1165,1194,1230,1210,1195,1185,1191,1202,1227,1234,1235,1227,1211,1203,1199,1198,1212,1225,1243,1255,1263,1270,1270,1272,1278,1291,1302,1310,1327,1348,1348,1351,1356,1361,1349,1344,1343,1340,1334,1328,1321,1315,1307,1297,1292,1284,1283,1274,1270,1263,1259,1252,1244,1242,1234,1231,1226,1223,1218,1216,1212,1208,1207,1201,1193,1191,1187,1185,1189,1177,1174,1169,1161,1164,1160,1157
524,500,467,429,382,365,341,356,402,452,456,414,329,281,244,218,210,211,212,217,224,246,273,309,342,384,411,376,365,398,304,328,441,184,102,101,100,100,100,103,100,102,106,165,195,168,201,234,261,266,286,283,290,302,299,306,326,323,337,345,357,373,382,397,417,434,451,475,526,492,486,472,465,470,483,495,509,527,551,566,589,634,680,747,809,1026,1106,1398,996,866,814,783,750,729,724,716,701,691,684,678,673,673,687,731,723,720,734,741,727,738,739,739,760,759,760,758,754,750,743,736,720,703,686,680,740,791,830,846,905,973,1109,1154,1184,1251,1151,1031,937,894,813,776,729,865,817,739,720,786,674,821,939,761,813,641,557,607,615,708,831,803,1075,1114,1403,1312,1102,975,1039,1212,1264,1213,1186,1299,1477,987,760,1082,678,600,642,686,742,724,777,1145,1091,1212,1262,1365,1577,1987,1715,1844,1737,1618,1247,1128,1129,1071,865,847,1070,1418,1341,1414,1623,1704,1716,1710,1620,1628,1636,1594,1644,1580,1594,1773,1802,1851,1545,1497,1410,1406,1597,1612,1622,1571,1557,1479,1367,1338,1333,1418,1666,1755,1688,1697,1826,1710,1673,1595,1501,1479,1466,1637,1718,1794,1699,1811,1709,1639,1608,1551,1549,1572,1680,1705,1767,1757,1693,1819,1787,1683,1843,1867,1843,1973,2040,2018,1874,1826,1774,1942,2120,2305,2348,2430,2480,2360,2373,2439,2507,2589,2751,3048,2911,3236,3270,3174,3259,3104,2991,2898,2843,2874,2845,2779,2747,2732,2794,2807,2790,2786,2784,2732,2697,2494,2460,2478,2509,2667,2815,3070,2765,2611,2682,2589,2578,2669,2708,2481,2324,2293,2354,2240,2223,2187,2212,2362,2418,2386,2341,2358,2305,2335,2255,2074,2241,2342,2289,2167,2165,2198,2307,2238,2185,2270,2262,2289,2274,2251,2155,2123,2101,2112,2275,2152,2139,2071,2072,2075,2079,2080,2078,2084,2083,2089,2086,2086,2085,2089,2089,2106,2182,2299,2215,2237,2237,2182,2151,2209,2139,2132,2142,2164,2244,2357,2475,2528,2538,2525,2477,2543,2588,2519,2650,2898,2584,2586,2281,2312,2136,1983,1931,1880,1843,1813,1787,1796,1802,1818,1872,1963,1806,1790,1770,1740,1702,1662,1632,1625,1705,1670,1624,1539,1468,1408,1375,1379,1384,1443,1466,1465,1495,1517,1548,1573,1538,1502,1478,1468,1471,1472,1474,1485,1490,1509,1537,1549,1594,1623,1665,1714,2164,2179,2033,1980,1989,1937,1914,1947,2051,2015,1957,1864,1758,1740,1706,1679,1662,1659,1771,1785,1753,1694,1658,1646,1650,1642,1654,1672,1708,1749,1794,1868,1890,2000,2070,2192,2493,2372,2122,2081,2069,2005,2000,1917,1928,1918,1845,1849,1864,1825,1832,1849,1859,1824,1829,1812,1774,1761,1732,1666,1637,1588,1558,1553,1549,1562,1551,1493,1479,1452,1452,1465,1418,1402,1381,1357,1342,1349,1390,1361,1319,1344,1351,1333,1325,1358,1318,1279,1255,1211,1235,1200,1181,1130,1119,1113,1107,1102,1094,1118,1112,1108,1111,1104,1085,1097,1128,1153,1191,1204,1227,1227,1216,1197,1197,1207,1215,1229,1242,1253,1230,1215,1202,1208,1208,1228,1246,1240,1261,1269,1272,1286,1287,1291,1302,1312,1327,1355,1344,1340,1340,1358,1351,1343,1342,1341,1334,1325,1322,1317,1309,1299,1297,1288,1283,1279,1273,1263,1261,1254,1244,1242,1238,1236,1232,1225,1222,1218,1216,1211,1211,1203,1199,1201,1191,1186,1180,1182,1178,1164,1169,1161,1156,1154
458,437,411,381,356,340,322,340,387,422,501,394,329,284,244,216,214,214,217,223,232,250,279,326,368,416,439,392,358,336,338,389,588,182,120,102,104,101,102,101,103,104,113,167,145,172,194,237,276,293,295,298,307,305,304,310,328,336,341,357,367,383,394,406,430,446,474,508,560,529,504,492,480,476,480,492,508,522,542,558,587,613,644,679,751,849,901,1137,1318,1273,1004,1010,839,789,770,758,780,716,699,694,689,697,872,856,801,762,733,740,744,752,763,843,800,775,773,767,771,765,763,758,727,776,790,659,791,825,771,895,927,975,1030,1077,1261,1166,1063,1129,1013,889,781,759,858,962,975,792,771,689,918,940,1025,755,807,694,659,609,706,696,837,937,967,1282,1514,1479,1282,1065,1228,1301,1477,1415,1288,1316,1225,821,895,1082,660,644,646,702,712,802,948,906,905,969,1198,1515,1694,1888,1527,1436,1568,1642,1485,1393,978,901,857,864,1003,1179,1233,1492,1745,1802,1571,1724,1679,1577,1515,1577,1528,1563,1675,1760,1810,1838,1640,1664,1390,1486,1572,1608,1682,1560,1649,1634,1614,1377,1378,1444,1692,1738,1717,1771,1733,1679,1545,1513,1471,1470,1528,1536,1583,1619,1676,1845,1728,1608,1579,1465,1606,1610,1798,1855,1778,1823,1736,1827,1992,1800,1819,2072,1888,1963,1936,2061,1999,1822,1834,1941,2066,2261,2420,2592,2641,2559,2550,2590,2669,2680,2784,2689,2915,3063,3121,3095,3049,3060,2902,2843,2877,2822,2821,2855,2785,2785,2800,2800,2834,2807,2806,2597,2437,2371,2344,2406,2568,2656,2833,3267,2998,2692,2646,2619,2595,2640,2645,2413,2388,2288,2252,2339,2246,2196,2209,2326,2344,2370,2344,2361,2283,2189,2241,2213,2242,2593,2475,2232,2190,2286,2185,2131,2130,2146,2213,2263,2206,2162,2130,2119,2115,2129,2278,2303,2139,2102,2091,2085,2083,2081,2083,2086,2090,2092,2093,2094,2093,2092,2092,2091,2138,2202,2174,2173,2211,2175,2129,2119,2117,2123,2131,2159,2229,2486,2432,2548,2517,2616,2547,2537,2595,2718,2828,3013,2559,2570,2366,2414,2244,2060,1922,1886,1871,1819,1845,1833,1844,1893,2013,2030,1933,1834,1806,1763,1717,1697,1668,1670,1798,1767,1744,1584,1491,1393,1378,1377,1384,1436,1463,1468,1505,1540,1609,1579,1548,1523,1492,1483,1477,1480,1485,1491,1502,1512,1532,1568,1613,1671,1696,1719,1927,2074,1946,1871,1979,1931,1978,2056,2059,1948,1886,1807,1817,1787,1721,1712,1696,1684,1698,1718,1708,1675,1669,1664,1655,1651,1671,1683,1711,1772,1841,1915,2029,1963,2055,2187,2343,2430,2210,2018,2018,1962,1961,1908,1949,1911,1877,1861,1824,1798,1809,1811,1836,1824,1815,1782,1796,1776,1723,1697,1688,1646,1633,1593,1554,1531,1560,1540,1492,1506,1471,1462,1449,1429,1421,1419,1354,1373,1389,1362,1362,1361,1384,1366,1351,1309,1293,1283,1267,1232,1204,1169,1148,1148,1144,1115,1124,1150,1143,1155,1137,1108,1099,1111,1099,1088,1119,1152,1160,1175,1202,1229,1211,1197,1214,1205,1214,1219,1228,1234,1243,1238,1217,1218,1220,1224,1241,1241,1252,1265,1280,1285,1283,1286,1298,1309,1326,1342,1338,1330,1335,1346,1354,1343,1337,1338,1332,1326,1322,1316,1310,1302,1297,1290,1286,1286,1273,1271,1263,1260,1251,1247,1244,1237,1236,1227,1226,1220,1218,1214,1215,1208,1205,1201,1194,1191,1181,1185,1177,1162,1164,1159,1160,1156
402,377,358,343,328,312,299,317,347,385,416,358,315,270,234,234,232,227,233,235,238,254,287,333,384,534,440,387,352,322,293,292,324,295,126,126,104,104,101,104,103,104,113,124,158,162,178,221,251,291,303,308,317,316,318,324,329,349,354,369,379,390,408,421,435,462,509,536,569,590,591,528,502,495,484,491,510,521,539,557,580,600,630,669,702,741,792,1005,1021,1128,1371,1417,1088,936,838,812,776,743,720,715,717,799,766,760,772,750,745,751,760,773,783,803,808,794,783,785,791,791,785,776,755,738,827,737,731,731,719,809,840,943,1033,1175,1287,1258,1154,1093,1056,820,832,902,967,1102,983,799,832,789,1065,958,828,885,979,676,741,613,667,776,760,853,1008,1086,1306,1467,1359,1247,1296,1274,1386,1542,1308,1334,975,926,1214,1164,651,613,690,692,739,837,838,997,1088,989,1169,1342,1553,2013,2264,1629,1521,1272,1134,1043,939,948,963,899,897,1028,1219,1778,1632,1735,1591,1770,1684,1640,1551,1600,1497,1597,1626,1678,1939,1737,1592,1461,1415,1616,1649,1588,1765,1707,1706,1596,1543,1502,1465,1604,1651,1747,1800,1769,1639,1643,1605,1587,1533,1470,1512,1608,1607,1741,1856,1785,1750,1658,1565,1570,1557,1670,1751,1774,1868,1815,1824,1946,1978,1830,1922,2016,1960,2049,2031,2104,2036,1949,1870,1883,2001,2143,2376,2564,2616,2566,2505,2518,2637,2692,2592,2826,2880,2971,3134,2949,2862,2947,2862,2836,2705,2847,2793,2794,2783,2802,2808,2823,2895,2813,2769,2640,2557,2385,2328,2622,2631,2712,3180,3275,2801,2677,2656,2684,2687,2666,2546,2509,2372,2291,2273,2239,2337,2267,2290,2238,2327,2326,2315,2309,2276,2186,2134,2309,2396,2620,2389,2341,2268,2237,2190,2167,2222,2185,2205,2232,2208,2181,2186,2156,2159,2154,2188,2207,2154,2126,2119,2106,2088,2084,2084,2084,2094,2098,2098,2101,2100,2099,2094,2095,2100,2158,2131,2149,2159,2170,2119,2108,2112,2118,2122,2144,2215,2361,2548,2411,2440,2547,2577,2630,2685,2629,2849,2734,2407,2440,2397,2282,2133,2002,1928,1896,1845,1871,1883,1882,1892,2038,2129,2188,1934,1868,1828,1791,1772,1740,1700,1704,1809,1724,1804,1608,1466,1409,1379,1380,1381,1437,1462,1481,1519,1565,1600,1617,1562,1521,1493,1484,1487,1486,1492,1502,1509,1518,1539,1594,1611,1682,1697,1736,1852,1945,1829,1955,1924,1909,1982,2015,1949,1919,1840,1867,1859,1783,1798,1744,1737,1693,1669,1685,1672,1663,1688,1677,1662,1666,1698,1712,1730,1800,2031,2090,2132,2085,2012,2066,2124,2138,2061,1986,1950,1948,1910,1902,1951,1909,1841,1839,1800,1791,1765,1759,1771,1780,1776,1769,1739,1712,1717,1711,1695,1649,1640,1629,1615,1589,1569,1563,1559,1549,1513,1493,1494,1488,1462,1437,1410,1374,1386,1370,1380,1369,1375,1372,1341,1322,1336,1302,1235,1208,1192,1195,1184,1156,1136,1140,1126,1138,1169,1151,1138,1111,1100,1111,1106,1089,1125,1147,1158,1180,1206,1224,1218,1201,1202,1207,1213,1216,1217,1224,1243,1246,1231,1243,1232,1233,1237,1244,1249,1245,1257,1276,1274,1283,1295,1310,1329,1344,1335,1334,1337,1349,1354,1346,1342,1339,1331,1325,1320,1315,1308,1301,1296,1291,1290,1280,1281,1271,1263,1258,1253,1248,1242,1238,1235,1228,1224,1225,1216,1218,1216,1213,1209,1204,1194,1190,1189,1184,1181,1170,1169,1164,1163,1154
353,327,314,302,291,285,284,283,308,330,328,308,279,254,248,257,263,259,262,256,255,260,292,339,388,512,450,366,336,300,278,245,216,239,146,132,108,105,104,104,104,105,105,106,143,152,173,199,236,261,296,310,321,325,331,337,346,354,366,375,389,404,423,446,447,461,490,564,619,650,654,645,730,592,515,501,509,522,539,555,574,597,621,649,671,695,731,788,872,1039,1369,1205,1268,1310,1242,961,819,759,755,758,747,740,739,739,745,751,753,763,765,775,796,828,1051,852,796,802,809,809,805,796,768,760,821,841,766,774,767,747,859,871,994,1024,1119,1197,1204,1098,923,961,929,919,1115,958,904,876,856,975,991,920,1115,957,963,775,658,606,681,679,801,948,983,1015,1283,1762,1451,1296,1293,1422,1472,1530,1414,1237,881,1092,1265,1031,741,619,669,783,723,831,893,1019,1481,1323,1177,1421,1647,1646,1986,1657,1386,1106,1015,990,1011,980,872,861,950,1121,1174,1430,1677,1550,1467,1773,1701,1611,1543,1561,1494,1563,1655,1896,1890,1698,1652,1525,1498,1832,1610,1680,1682,1796,1704,1648,1578,1484,1533,1717,1854,1841,1778,1768,1623,1621,1591,1575,1537,1484,1543,1589,1650,1764,1822,1901,1803,1602,1488,1577,1634,1538,1795,1721,1825,1859,1916,1885,2006,1940,1853,1930,2011,1946,2083,2149,2058,2025,1917,1921,1904,2104,2317,2348,2422,2503,2542,2553,2595,2683,2559,2719,2772,2774,2798,2768,2839,2852,2834,2837,2808,2713,2814,2808,2821,2892,2825,2825,2823,2834,2764,2834,2524,2403,2321,2332,2510,2608,2734,2754,2671,2683,2587,2682,2693,2704,2685,2457,2404,2339,2294,2265,2270,2319,2338,2347,2315,2292,2305,2297,2260,2238,2299,2262,2380,2458,2446,2396,2253,2206,2227,2223,2253,2212,2264,2270,2279,2257,2223,2214,2210,2199,2209,2248,2163,2148,2129,2130,2122,2101,2085,2092,2095,2102,2105,2105,2108,2102,2100,2099,2093,2101,2114,2120,2171,2173,2109,2106,2110,2110,2117,2167,2236,2322,2373,2339,2420,2451,2537,2536,2616,2793,2701,2667,2605,2402,2284,2160,2019,1965,1943,1913,1900,1992,1933,1930,1972,2216,2184,2307,2010,2025,1882,1832,1827,1772,1729,1767,1777,1698,1629,1555,1490,1426,1379,1381,1382,1437,1475,1490,1523,1561,1613,1582,1553,1512,1495,1494,1493,1495,1495,1508,1517,1530,1542,1589,1605,1655,1686,1694,1746,1842,1931,1921,1864,1920,2027,2023,1971,1885,1933,1869,1826,1830,1834,1806,1789,1722,1682,1666,1661,1658,1674,1670,1665,1677,1705,1736,1751,1816,2045,2302,2131,2263,2111,2092,2038,2038,2012,2064,1942,1903,1889,1864,1869,1845,1812,1808,1825,1815,1787,1768,1732,1740,1756,1763,1753,1738,1704,1688,1690,1630,1613,1605,1604,1591,1571,1582,1554,1560,1544,1496,1477,1452,1427,1420,1399,1383,1389,1391,1382,1390,1362,1354,1358,1325,1300,1265,1253,1240,1218,1204,1179,1156,1156,1149,1171,1151,1191,1196,1196,1157,1131,1120,1112,1094,1093,1147,1161,1179,1223,1233,1228,1211,1200,1207,1215,1212,1219,1219,1226,1234,1239,1256,1255,1245,1257,1240,1234,1243,1263,1282,1283,1287,1304,1319,1342,1360,1350,1346,1351,1352,1355,1355,1344,1337,1336,1330,1319,1318,1310,1305,1297,1292,1288,1285,1279,1274,1268,1266,1256,1247,1243,1243,1238,1231,1229,1225,1218,1213,1214,1211,1207,1204,1197,1191,1187,1185,1177,1168,1161,1159,1167,1161
324,292,273,267,259,254,261,257,263,273,284,267,255,268,272,291,303,306,300,294,287,285,284,325,355,367,365,330,302,275,253,234,201,190,153,137,124,104,105,105,105,105,106,105,123,162,164,191,230,266,309,310,302,316,333,334,336,347,365,382,397,414,432,464,473,466,491,583,637,705,831,653,711,750,560,519,513,523,535,552,573,592,620,649,651,675,695,723,782,814,971,1068,1046,1168,950,980,866,771,751,741,718,717,729,742,751,759,769,778,782,789,809,956,946,812,814,820,825,825,829,816,793,798,821,825,850,844,820,844,933,794,960,1107,1039,1107,1140,1135,974,1013,1028,1091,1076,1084,1099,1005,888,1026,1236,1187,986,1146,1205,819,741,599,611,651,942,999,981,1110,1286,1607,1375,1412,1390,1309,1498,1308,1209,1110,1064,1200,1386,1114,767,660,675,691,740,826,959,1086,957,1046,1287,1363,1449,1591,1916,1959,1665,1215,1051,989,928,948,929,904,1113,1223,1367,1346,1400,1505,1526,1842,1698,1628,1425,1381,1473,1744,1730,1902,1791,1742,1664,1481,1498,1838,1673,1710,1676,1739,1660,1585,1635,1521,1583,1679,1837,1825,1772,1758,1719,1691,1620,1629,1531,1526,1564,1664,1692,1800,1964,1987,1778,1599,1567,1699,1717,1624,1665,1821,1810,1851,1971,2046,2087,2017,1969,2050,2051,2055,2096,2186,2074,2005,2015,1984,1981,2067,2167,2212,2479,2470,2468,2538,2626,2478,2528,2569,2585,2631,2779,2782,2784,2786,2812,2810,2747,2561,2791,2779,2820,2800,2840,2802,2805,2762,2615,2516,2498,2431,2300,2310,2366,2485,2564,2615,2636,2501,2619,2706,2733,2793,2686,2568,2608,2432,2321,2310,2310,2402,2352,2390,2331,2294,2254,2280,2223,2327,2287,2237,2277,2385,2452,2297,2249,2256,2237,2256,2257,2288,2308,2307,2496,2449,2358,2278,2254,2202,2207,2275,2238,2218,2164,2170,2180,2199,2152,2122,2102,2104,2110,2111,2108,2105,2101,2099,2096,2095,2099,2115,2173,2133,2138,2103,2108,2110,2123,2148,2186,2258,2289,2301,2367,2383,2498,2497,2520,2589,2562,2631,2668,2302,2215,2047,2052,2016,1959,1914,1939,1960,1963,1982,2064,2390,2691,2274,2307,2062,1963,1926,1828,1798,1738,1701,1879,1661,1686,1548,1499,1451,1380,1384,1378,1435,1487,1501,1528,1558,1600,1566,1541,1515,1506,1504,1500,1502,1503,1509,1524,1536,1549,1581,1606,1626,1641,1669,1695,1834,1874,1816,1849,1913,2016,1984,2001,1961,1905,1879,1860,1915,1892,1846,1830,1735,1698,1683,1650,1654,1658,1662,1676,1689,1703,1729,1771,1823,1896,1965,2170,2128,2020,2069,2023,2005,1969,1942,1920,1911,1890,1870,1856,1833,1905,1859,1846,1851,1837,1780,1736,1713,1748,1721,1739,1744,1737,1691,1679,1635,1630,1613,1583,1579,1539,1537,1517,1517,1499,1478,1476,1446,1458,1447,1415,1393,1382,1367,1381,1376,1378,1332,1346,1347,1319,1278,1265,1225,1217,1202,1182,1178,1174,1161,1166,1192,1201,1178,1167,1157,1149,1122,1125,1109,1098,1143,1161,1179,1201,1239,1220,1215,1210,1210,1220,1216,1219,1241,1252,1222,1228,1239,1251,1258,1279,1243,1237,1245,1259,1284,1290,1299,1307,1323,1339,1357,1372,1369,1371,1366,1361,1356,1354,1343,1337,1327,1318,1315,1312,1307,1302,1293,1288,1290,1282,1277,1268,1264,1259,1251,1250,1242,1237,1233,1230,1222,1223,1216,1216,1211,1206,1211,1204,1199,1192,1180,1179,1176,1163,1162,1165,1156
313,273,249,238,227,232,231,234,223,239,264,259,276,294,307,329,350,343,348,333,323,310,295,293,303,314,313,294,268,246,225,207,188,176,159,149,131,103,107,106,106,108,106,107,122,158,164,179,203,239,293,273,281,289,307,310,327,354,373,392,407,422,496,508,535,487,496,518,555,584,602,584,639,636,781,579,535,534,540,554,565,582,611,734,733,678,674,709,703,753,768,818,811,834,889,817,781,739,712,701,714,727,740,754,765,772,781,788,798,848,827,837,819,818,830,840,850,850,849,839,824,840,859,879,873,862,898,917,992,961,911,1050,874,1070,1146,1224,1063,1273,1093,1080,1185,1440,1218,1167,986,1304,1319,1388,1196,1453,1137,852,715,613,715,690,822,685,877,995,1281,1632,1351,1247,1456,1488,1524,1225,1159,1087,1395,1120,1524,1061,772,687,743,696,771,821,957,1104,1336,1366,1201,1440,1629,1688,1850,2014,1540,1183,1011,965,916,980,1018,943,915,1131,1327,1507,1317,1317,1520,1817,1685,1532,1438,1515,1572,1627,1752,1690,1665,1637,1527,1494,1491,1616,1807,1729,1711,1718,1720,1561,1699,1567,1668,1754,1825,1791,1798,1729,1763,1770,1719,1624,1532,1546,1594,1670,1791,1807,1845,1998,1753,1587,1690,1680,1882,1858,1718,1866,1822,1907,1958,2101,2096,2070,2059,2043,2077,1942,2063,2091,2084,2159,2117,2127,2052,1990,2023,2234,2283,2289,2334,2544,2401,2499,2513,2575,2666,2716,2759,2788,2799,2794,2795,2787,2698,2625,2572,2682,2685,2719,2778,2799,2790,2780,2487,2424,2479,2362,2358,2276,2336,2442,2500,2699,2602,2485,2478,2530,2722,2762,2674,2646,2604,2542,2360,2357,2506,2444,2437,2419,2354,2305,2309,2293,2292,2334,2295,2376,2340,2402,2442,2288,2271,2304,2283,2284,2311,2310,2348,2396,2464,2461,2348,2320,2339,2264,2239,2316,2590,2258,2181,2224,2279,2437,2400,2232,2122,2116,2115,2115,2114,2110,2105,2103,2099,2096,2099,2118,2123,2110,2110,2104,2107,2111,2126,2152,2180,2217,2242,2287,2376,2494,2424,2476,2402,2467,2447,2409,2482,2300,2182,2112,2059,2005,1960,2009,2039,2078,2033,2064,2205,2420,2485,2056,2311,2265,2016,1983,1884,1804,1739,1695,1667,1635,1635,1557,1479,1435,1383,1382,1383,1454,1488,1495,1483,1526,1547,1556,1532,1517,1519,1519,1513,1504,1508,1509,1523,1542,1553,1572,1594,1615,1640,1669,1696,1814,1795,1801,1859,1933,2037,2065,1995,1970,1945,1930,1972,1947,1911,1861,1832,1734,1716,1694,1669,1668,1658,1664,1682,1701,1722,1737,1771,1806,1848,1939,2031,2036,2043,2095,2085,2063,2008,1979,1975,1962,1947,1897,1883,1871,1900,1881,1852,1814,1821,1813,1768,1740,1696,1685,1719,1701,1685,1686,1652,1643,1637,1593,1581,1561,1535,1529,1521,1529,1507,1511,1500,1478,1471,1453,1431,1397,1388,1395,1402,1360,1356,1357,1331,1332,1289,1269,1257,1207,1226,1217,1219,1205,1202,1169,1212,1252,1232,1223,1202,1185,1167,1145,1127,1113,1098,1131,1148,1168,1190,1243,1227,1212,1210,1211,1216,1208,1217,1232,1228,1226,1230,1237,1250,1261,1265,1267,1259,1263,1281,1290,1296,1306,1316,1326,1338,1359,1386,1379,1376,1370,1358,1360,1358,1344,1337,1327,1319,1317,1309,1308,1304,1300,1295,1288,1283,1273,1269,1261,1255,1252,1246,1243,1240,1233,1230,1227,1221,1217,1214,1214,1211,1206,1199,1199,1189,1187,1175,1177,1169,1164,1159,1156
321,267,233,214,207,209,209,208,213,225,249,271,294,311,333,364,416,464,404,373,357,334,316,300,283,274,272,261,241,225,213,206,195,185,180,165,151,134,128,118,103,107,107,108,127,161,164,218,390,276,227,241,280,339,295,319,337,362,393,422,431,437,477,463,484,557,515,514,486,498,509,550,543,559,595,766,720,608,583,586,618,609,609,633,636,661,663,658,670,668,679,694,723,705,715,737,730,701,691,711,727,739,755,770,779,792,798,805,812,902,834,834,838,838,847,855,870,870,874,832,848,873,901,904,917,926,952,999,962,976,865,881,899,939,1112,1276,1267,1400,1170,1183,1610,1514,1348,1195,1191,1557,1489,1376,1446,1683,1270,936,788,677,853,853,769,1038,1030,905,1248,1172,1311,1189,1298,1260,1378,1282,1254,1139,1388,1269,1225,986,752,700,647,706,779,830,989,1087,1562,1581,1384,1210,1530,1924,1759,1623,1399,1213,1059,988,946,1054,1147,932,936,1128,1355,1438,1519,1417,1504,1569,1517,1465,1302,1444,1550,1591,1655,1604,1588,1565,1523,1595,1647,1823,1814,1779,1754,1818,1707,1678,1613,1578,1684,1844,1810,1814,1811,1762,1920,1892,1688,1615,1536,1617,1660,1811,2005,1940,2027,1837,1781,1544,1767,1605,1912,1850,1750,1731,1885,1838,1937,2002,2134,2094,2125,2112,2057,2020,1992,2073,2141,2153,2246,2187,2079,2138,2067,2047,2187,2321,2364,2398,2442,2492,2500,2605,2677,2719,2771,2778,2795,2791,2863,2802,2591,2541,2523,2622,2599,2689,2724,2751,2599,2521,2581,2425,2418,2337,2368,2285,2393,2414,2448,2508,2467,2451,2364,2416,2491,2511,2618,2634,2569,2588,2470,2582,2614,2528,2541,2525,2390,2398,2287,2326,2306,2328,2335,2339,2410,2422,2407,2327,2332,2373,2335,2330,2371,2424,2456,2516,2524,2508,2426,2453,2481,2564,2540,2537,2342,2279,2251,2292,2454,2598,2649,2461,2205,2153,2123,2119,2120,2113,2108,2106,2101,2102,2104,2137,2185,2129,2103,2106,2108,2109,2124,2148,2172,2221,2233,2268,2400,2440,2414,2368,2354,2359,2342,2332,2311,2253,2177,2104,2045,1998,1969,2119,2130,2026,2121,2088,2295,2613,2301,2493,2507,2406,2212,2038,1961,1828,1762,1749,1867,1708,1564,1528,1499,1432,1391,1386,1399,1422,1439,1470,1497,1504,1526,1565,1539,1529,1532,1531,1525,1514,1512,1516,1519,1536,1557,1599,1593,1620,1673,1670,1692,1724,1768,1784,1840,1919,2123,2087,2035,2069,2030,1997,1967,1911,1907,1866,1817,1742,1710,1695,1676,1668,1695,1686,1691,1700,1733,1760,1774,1805,1915,1972,1904,1928,2010,2180,2265,2096,2040,2049,2000,1963,1964,1952,1937,1929,1905,1885,1862,1849,1847,1819,1786,1753,1718,1709,1680,1676,1653,1622,1635,1602,1594,1606,1605,1568,1569,1562,1553,1546,1531,1533,1499,1477,1449,1415,1429,1399,1377,1379,1401,1363,1344,1330,1322,1288,1285,1278,1241,1225,1245,1263,1272,1232,1261,1191,1233,1236,1231,1216,1206,1162,1167,1149,1135,1117,1102,1132,1144,1169,1192,1244,1244,1232,1215,1227,1210,1221,1222,1232,1235,1232,1235,1242,1245,1258,1243,1258,1281,1280,1290,1296,1312,1321,1329,1335,1340,1353,1370,1373,1367,1363,1366,1355,1352,1345,1331,1327,1320,1320,1315,1307,1304,1304,1298,1293,1285,1277,1270,1262,1259,1254,1248,1244,1240,1236,1229,1228,1221,1219,1215,1216,1214,1207,1202,1195,1189,1184,1179,1178,1165,1162,1162,1159
329,277,236,203,196,190,193,200,210,228,256,289,313,336,366,420,486,708,506,407,383,355,337,317,299,281,266,254,244,235,226,221,207,207,200,186,175,157,147,139,129,108,108,125,129,148,165,192,201,193,235,244,437,418,459,321,345,390,428,502,493,474,462,470,487,529,556,481,453,453,476,472,495,503,556,598,608,727,657,675,750,692,647,612,591,589,598,611,621,615,624,655,655,650,658,679,695,680,693,713,735,750,769,784,799,808,818,825,830,830,842,854,856,861,866,878,886,892,892,881,880,875,943,965,973,1002,1050,1089,1115,1156,1049,1011,1172,1008,1103,1270,1250,1376,1326,1382,1862,1496,1347,1291,1685,1603,1552,1679,1585,1560,1112,756,715,814,906,974,677,1039,1095,1136,896,927,1127,1107,1202,1466,1557,1208,1151,1240,1415,1022,1002,856,931,663,708,794,973,901,1118,1263,1288,1430,1442,1590,1974,1934,2160,1477,1195,1182,1089,1000,968,1081,1166,950,885,1182,1390,1435,1366,1444,1547,1761,1571,1321,1377,1418,1493,1622,1630,1606,1579,1559,1593,1725,1856,1646,1877,1973,1770,1839,1807,1704,1612,1642,1874,1832,1850,1862,1896,1809,1914,1727,1652,1624,1602,1768,1792,1755,2020,1994,1760,1649,1555,1727,1725,1682,1749,1888,1761,1826,1796,2002,1928,1989,2051,1932,2017,1973,2035,2036,2045,2130,2129,2144,2199,2230,2239,2217,2249,2180,2326,2361,2384,2389,2459,2521,2555,2599,2723,2794,2799,2828,2831,2774,2768,2729,2697,2493,2514,2537,2458,2720,2659,2627,2580,2411,2589,2558,2481,2352,2372,2290,2396,2381,2389,2320,2402,2373,2317,2348,2386,2491,2486,2537,2532,2485,2555,2580,2493,2573,2613,2450,2415,2362,2371,2338,2383,2352,2447,2388,2411,2340,2413,2410,2415,2406,2458,2434,2426,2507,2511,2641,2639,2570,2524,2487,2556,2678,2588,2512,2360,2290,2466,2426,2506,2486,2593,2406,2270,2181,2139,2127,2123,2118,2110,2107,2105,2107,2111,2133,2184,2205,2109,2109,2111,2114,2121,2137,2167,2190,2220,2246,2352,2381,2331,2294,2285,2285,2281,2269,2243,2200,2148,2096,2046,1986,2086,2164,2129,2148,2123,2154,2294,2663,2312,2785,2427,2606,2321,2098,1956,1868,1781,1748,1806,1685,1580,1521,1484,1443,1387,1389,1396,1461,1478,1492,1546,1551,1553,1560,1552,1546,1546,1541,1538,1523,1521,1519,1528,1536,1558,1574,1605,1618,1638,1658,1682,1714,1749,1796,1837,1888,2026,2081,2081,2056,2037,1971,1938,1912,1863,1833,1790,1739,1712,1701,1687,1686,1689,1702,1699,1700,1703,1756,1804,1841,1980,1856,1941,1979,2134,2278,2334,2141,2094,2039,2010,1980,1947,1917,1936,1914,1899,1887,1869,1845,1845,1824,1803,1782,1748,1745,1726,1714,1684,1638,1588,1583,1577,1566,1557,1533,1535,1542,1533,1519,1514,1523,1488,1461,1437,1404,1378,1381,1373,1363,1350,1373,1365,1329,1301,1288,1292,1269,1223,1240,1271,1269,1236,1221,1208,1194,1200,1208,1195,1192,1180,1151,1128,1123,1122,1107,1104,1130,1153,1166,1187,1241,1257,1244,1240,1206,1203,1218,1246,1230,1232,1239,1502,1243,1251,1251,1239,1249,1261,1280,1293,1305,1314,1323,1330,1342,1340,1354,1370,1364,1363,1361,1357,1355,1353,1344,1333,1320,1321,1320,1311,1306,1299,1298,1298,1290,1280,1277,1271,1261,1255,1255,1249,1248,1241,1236,1236,1234,1225,1222,1218,1219,1213,1205,1203,1194,1193,1182,1178,1176,1166,1162,1162,1159
461,291,241,199,188,187,192,199,213,237,266,301,330,358,393,454,635,676,469,440,413,376,357,333,314,296,281,268,259,257,242,231,228,229,219,211,201,187,180,175,164,140,118,117,130,139,156,166,162,187,225,246,323,338,453,435,365,414,666,607,612,534,484,496,491,513,565,441,493,418,435,434,464,459,425,457,548,565,806,1029,1005,853,706,653,583,552,571,567,577,572,593,600,604,621,638,652,665,677,700,721,742,763,780,799,815,828,836,844,847,854,862,877,888,893,892,897,910,913,879,908,909,908,970,1014,1020,1211,1221,1553,1269,1158,1207,1360,1274,1119,1090,1172,1250,1346,1365,1444,1765,1587,1362,1682,1730,1848,1847,1848,1722,1389,1062,900,725,849,983,1003,841,1094,1017,1048,1201,1086,1281,1355,1247,1362,1509,1281,1147,1294,1108,935,834,872,894,662,802,895,1028,1018,1287,1276,1674,1655,1520,1924,1819,2118,1788,1271,1125,1083,1055,1008,1034,1101,1104,995,1000,898,1368,1221,1445,1447,1475,1556,1625,1276,1483,1556,1623,1540,1635,1656,1613,1637,1598,1736,1913,1830,1831,1922,1868,1862,1834,1831,1777,1893,1762,1823,1874,1917,1947,1870,1892,1743,1668,1630,1715,1801,1867,1844,1965,1624,1624,1765,1919,1755,1836,1684,1912,1928,1777,1825,1778,1838,2001,1928,1894,1898,1982,1938,1915,1926,1951,2022,2054,2176,2200,2213,2230,2243,2295,2337,2317,2342,2432,2432,2471,2552,2595,2636,2714,2794,2857,2942,2837,2794,2764,2728,2571,2487,2402,2492,2406,2522,2499,2456,2441,2325,2353,2321,2303,2405,2330,2365,2328,2305,2412,2293,2354,2287,2302,2364,2492,2552,2490,2507,2487,2456,2574,2431,2416,2513,2503,2437,2353,2421,2458,2561,2490,2417,2698,2769,2431,2377,2465,2407,2595,2385,2583,2686,2642,2729,2787,2692,2668,2564,2449,2600,2692,2693,2586,2625,2502,2418,2391,2328,2397,2409,2376,2328,2235,2174,2138,2136,2123,2117,2112,2111,2113,2114,2122,2117,2157,2157,2122,2112,2116,2114,2119,2135,2154,2194,2204,2239,2315,2321,2285,2259,2251,2244,2237,2220,2193,2162,2120,2083,2040,2055,2086,2091,2179,2284,2181,2237,2351,2657,2494,3042,2485,2545,2300,2150,2130,1935,1776,1709,1674,1662,1558,1520,1472,1440,1388,1388,1407,1479,1496,1518,1642,1610,1595,1580,1573,1560,1557,1555,1551,1539,1529,1552,1558,1549,1559,1575,1594,1611,1634,1658,1683,1717,1746,1781,1829,1880,1979,2083,2074,2042,2010,1980,1921,1933,1857,1833,1755,1726,1714,1707,1689,1690,1713,1744,1727,1742,1721,1747,1843,1880,1974,1950,1950,2039,2154,2226,2182,2146,2114,2054,2014,1983,1943,1919,1898,1906,1895,1873,1855,1824,1823,1781,1793,1761,1728,1732,1678,1696,1673,1641,1606,1627,1598,1577,1580,1539,1536,1486,1507,1510,1494,1509,1484,1427,1423,1411,1368,1377,1381,1363,1354,1344,1365,1339,1317,1330,1293,1258,1242,1247,1283,1273,1238,1207,1195,1195,1178,1169,1163,1153,1151,1164,1154,1153,1141,1120,1102,1144,1171,1175,1184,1206,1253,1252,1236,1216,1204,1216,1234,1235,1242,1250,1248,1252,1257,1259,1269,1261,1278,1284,1301,1313,1324,1330,1335,1344,1346,1353,1366,1364,1363,1364,1354,1357,1348,1345,1328,1324,1321,1312,1311,1307,1304,1297,1291,1286,1280,1274,1272,1262,1255,1257,1254,1248,1248,1241,1238,1234,1228,1220,1221,1214,1214,1205,1208,1195,1188,1185,1182,1179,1172,1165,1165,1161
408,316,294,204,188,185,188,200,221,251,289,328,361,380,407,480,519,588,514,473,428,399,379,356,336,318,301,286,277,266,256,251,253,247,243,240,231,216,213,209,200,185,174,144,124,110,123,154,203,231,293,348,345,344,419,364,373,425,530,655,515,521,530,543,457,462,400,399,452,440,392,394,414,395,375,396,433,537,819,795,850,930,760,640,572,557,539,519,530,548,579,596,608,623,643,608,613,637,695,736,755,770,786,808,830,845,856,865,865,873,887,908,918,927,931,930,932,935,904,933,946,948,983,1106,1348,1152,1366,1485,1440,1426,1254,1497,1371,1297,1216,1126,1276,1510,1432,1492,1678,1493,1455,1759,2096,1942,1902,1944,1731,1310,1152,943,746,891,1003,792,1062,1122,1118,1170,1200,1231,1205,1480,1305,1522,1548,1375,1199,1003,905,915,907,879,902,719,754,951,1081,1135,1476,1463,1535,1582,1680,1815,1836,2019,1745,1326,1148,1055,1042,1082,1136,1161,1214,1248,1112,1044,1221,1200,1444,1419,1455,1443,1541,1423,1574,1693,1656,1663,1712,1710,1831,1672,1597,1754,1907,1895,1887,1959,1863,1955,1941,1915,1905,1725,1830,1863,1933,2040,2000,1896,1867,1713,1816,1661,1728,1812,1956,1805,1653,1853,1771,1953,1907,1702,1797,1769,1950,1895,1755,1942,1993,1786,1808,1822,1862,1924,1915,1899,1972,1981,2048,2116,2146,2196,2209,2266,2245,2265,2292,2326,2339,2393,2405,2499,2505,2618,2634,2672,2711,2785,2889,2914,2841,2818,2773,2649,2554,2510,2429,2273,2244,2301,2345,2314,2267,2232,2263,2285,2344,2376,2297,2293,2304,2320,2277,2270,2382,2259,2275,2404,2461,2531,2464,2478,2463,2456,2412,2375,2404,2435,2389,2410,2304,2345,2486,2563,2728,2634,2473,2701,2605,2540,2588,2597,2644,2514,2594,2584,2612,2644,2727,2691,2647,2621,2532,2610,2829,2840,2767,2712,2422,2385,2330,2296,2283,2293,2268,2274,2329,2160,2162,2145,2140,2134,2121,2125,2120,2127,2133,2129,2133,2151,2153,2136,2122,2119,2118,2128,2143,2184,2190,2218,2282,2269,2250,2221,2215,2206,2201,2220,2172,2141,2108,2080,2046,2074,2107,2119,2195,2219,2363,2288,2481,3069,3010,2987,2439,2467,2284,2225,2045,2010,1827,1768,1818,1651,1561,1514,1462,1429,1391,1392,1419,1459,1505,1544,1610,1638,1594,1605,1592,1581,1574,1571,1561,1548,1568,1579,1566,1553,1565,1579,1607,1615,1637,1658,1712,1729,1747,1794,1831,1874,1943,2026,2016,2036,1969,1940,1915,1891,1894,1788,1749,1754,1744,1757,1718,1702,1719,1732,1773,1768,1746,1753,1769,1891,1858,1918,1964,2059,2100,2132,2122,2184,2139,2039,2024,1963,1934,1928,1874,1876,1881,1848,1828,1834,1823,1775,1783,1724,1734,1720,1693,1676,1664,1657,1613,1612,1607,1592,1581,1557,1523,1526,1468,1476,1477,1486,1478,1448,1419,1383,1358,1344,1335,1344,1348,1326,1344,1359,1352,1316,1284,1265,1276,1265,1277,1253,1218,1207,1210,1236,1204,1178,1179,1180,1184,1200,1176,1161,1144,1121,1103,1133,1144,1159,1175,1202,1245,1262,1227,1209,1211,1222,1227,1240,1245,1258,1258,1259,1263,1266,1270,1274,1281,1295,1303,1321,1331,1333,1343,1363,1366,1369,1369,1365,1365,1362,1356,1352,1347,1338,1331,1324,1318,1320,1313,1308,1301,1298,1293,1290,1281,1277,1278,1271,1268,1262,1260,1256,1247,1247,1240,1234,1233,1223,1216,1210,1212,1207,1203,1200,1187,1183,1178,1174,1164,1171,1171,1165
287,262,236,200,188,186,190,203,239,272,315,359,401,425,449,593,755,598,590,486,446,426,404,383,363,341,319,300,293,279,274,274,275,273,270,271,255,249,248,251,236,221,212,184,173,146,138,124,191,234,300,381,323,363,454,393,439,353,404,469,403,495,630,582,520,418,388,337,354,382,357,360,363,340,336,358,423,571,665,653,683,765,685,586,553,520,510,502,531,551,571,587,602,604,571,638,677,699,654,698,756,772,785,800,946,844,870,880,886,900,911,937,955,967,983,987,962,961,973,962,984,1002,1271,1152,1363,1297,1442,1426,1355,1301,1250,1189,1071,1130,1143,1099,1214,1445,1417,1581,1636,1791,1624,1908,2081,1790,1849,1889,1525,1284,1036,1080,750,876,1032,811,1129,1164,1115,1155,1184,1218,1299,1400,1540,1472,1633,1275,1115,949,922,914,866,817,874,694,795,812,965,1246,1339,1506,1542,1595,1644,1746,1833,1782,1703,1276,1136,1109,1124,1249,1230,1332,1417,1393,1180,1199,1179,1176,1177,1146,1487,1273,1482,1614,1504,1600,1637,1662,1701,1663,1654,1714,1677,1719,1821,1848,1936,2013,2010,1991,1913,1845,1662,1739,1779,1857,2156,2115,2001,1883,1864,1817,1809,1653,1789,1937,1740,1784,1921,1770,1985,1847,1804,1790,1945,1877,1971,1876,1795,1965,1877,1812,1849,1835,1833,1945,1935,1971,1988,1980,2087,2108,2118,2162,2193,2215,2244,2249,2312,2345,2411,2424,2455,2524,2576,2611,2724,2705,2706,2830,2854,3001,2823,2775,2749,2540,2516,2504,2386,2326,2279,2234,2195,2204,2180,2187,2203,2343,2209,2273,2226,2275,2296,2319,2253,2241,2368,2270,2249,2376,2411,2411,2425,2454,2427,2445,2510,2400,2379,2402,2298,2288,2299,2350,2428,2728,2667,2712,2567,2462,2560,2691,2482,2582,2543,2677,2647,2601,2609,2668,2590,2701,2603,2542,2525,2626,2884,2820,2623,2448,2400,2354,2283,2298,2300,2250,2217,2214,2176,2187,2181,2174,2164,2155,2152,2143,2140,2144,2146,2149,2162,2159,2153,2163,2125,2125,2124,2122,2132,2162,2173,2204,2240,2223,2228,2204,2187,2179,2172,2184,2158,2147,2130,2096,2098,2100,2126,2161,2200,2230,2293,2394,2553,2991,2974,2811,2428,2422,2383,2217,1967,1845,1773,1751,1708,1607,1557,1510,1456,1407,1389,1401,1428,1492,1521,1563,1648,1665,1646,1631,1617,1603,1597,1584,1571,1580,1591,1578,1574,1560,1568,1582,1598,1615,1636,1648,1684,1702,1744,1774,1809,1862,2023,1988,1963,1984,1963,1945,1917,1910,1855,1769,1801,1780,1795,1776,1756,1726,1717,1747,1762,1793,1777,1765,1778,1810,1873,1946,2001,2022,2008,2002,2088,2118,2089,2053,2006,1957,1928,1929,1895,1894,1838,1870,1846,1817,1808,1795,1783,1705,1713,1699,1693,1665,1639,1645,1605,1598,1575,1568,1559,1539,1528,1494,1486,1466,1467,1439,1464,1422,1407,1391,1369,1377,1355,1320,1314,1313,1341,1332,1312,1312,1265,1301,1284,1255,1261,1232,1222,1208,1217,1205,1191,1200,1230,1243,1237,1218,1193,1168,1148,1124,1107,1148,1150,1171,1182,1216,1259,1256,1229,1212,1219,1240,1235,1243,1253,1265,1270,1262,1262,1270,1277,1278,1282,1294,1307,1316,1333,1353,1367,1367,1374,1372,1369,1366,1364,1363,1356,1347,1344,1341,1334,1324,1324,1323,1313,1312,1303,1300,1296,1289,1286,1285,1283,1275,1268,1261,1259,1255,1249,1240,1238,1236,1233,1224,1218,1213,1210,1213,1204,1197,1184,1182,1180,1172,1167,1171,1176,1165
243,222,204,188,188,186,195,220,257,299,345,396,443,472,511,769,709,841,687,535,480,460,438,416,390,361,335,315,300,301,298,302,296,302,304,307,288,290,287,287,276,265,249,239,207,175,141,110,182,253,223,312,426,445,445,461,427,333,330,327,363,443,599,524,385,476,387,337,302,322,330,374,341,315,267,314,533,578,537,587,625,588,554,541,493,477,475,497,521,545,561,520,590,623,640,662,686,706,719,733,689,716,779,785,812,824,833,885,913,947,950,980,991,1210,1050,1080,1215,998,980,994,1034,1114,1436,1265,1251,1344,1570,1474,1381,1290,1165,1128,1054,1003,1057,1200,1304,1312,1422,1593,1579,1750,1801,1932,1981,1756,1668,2021,1585,1382,960,847,754,802,1017,1081,1116,1160,1134,1148,1180,1214,1242,1452,1638,1578,1517,1163,1054,1017,966,936,936,792,963,744,679,892,1041,981,1517,1538,1368,1477,1707,1831,1830,1340,1410,1232,1157,1166,1224,1453,1420,1489,1522,1443,1350,1194,1173,1220,1293,1324,1341,1560,1471,1605,1601,1708,1487,1548,1598,1629,1667,1702,1734,1690,1868,1866,1971,1923,1998,1916,1888,1891,1942,1764,1793,1938,2216,2179,2099,1873,1835,1987,1938,1687,1979,1937,1722,1843,1996,1768,1821,1834,1869,1906,1926,1910,1976,1950,1823,1905,1880,1860,1960,1941,1918,1905,1970,2029,1984,2035,2049,2075,2112,2171,2194,2214,2229,2257,2323,2350,2397,2459,2504,2634,2582,2643,2717,2704,2721,2813,2828,2829,2825,2764,2609,2478,2451,2431,2381,2294,2287,2240,2199,2166,2157,2151,2168,2174,2211,2250,2315,2267,2278,2230,2210,2226,2335,2263,2226,2247,2370,2374,2386,2394,2405,2440,2417,2395,2348,2355,2308,2259,2304,2324,2381,2550,2685,2621,2544,2540,2629,2501,2417,2567,2437,2581,2631,2532,2607,2577,2552,2586,2487,2429,2538,2567,2802,2653,2521,2438,2424,2359,2305,2248,2232,2209,2204,2179,2184,2222,2229,2199,2195,2193,2189,2184,2166,2171,2172,2192,2197,2187,2162,2147,2135,2131,2128,2129,2126,2152,2159,2209,2202,2196,2192,2179,2167,2160,2152,2153,2243,2179,2141,2186,2123,2108,2141,2160,2186,2229,2334,2430,2641,2969,2542,2548,2415,2465,2124,2107,1941,1860,1781,2127,1652,1609,1560,1524,1440,1393,1396,1413,1454,1505,1522,1592,1680,1670,1673,1684,1640,1619,1610,1601,1610,1633,1610,1581,1577,1571,1572,1588,1601,1615,1640,1669,1704,1740,1730,1744,1803,1856,1969,1951,1982,1971,2013,2013,1932,1895,1800,1770,1824,1832,1828,1811,1767,1753,1729,1745,1767,1801,1787,1775,1790,1797,1871,1934,1925,1942,1939,2006,2060,2122,2043,2011,1999,1936,1915,1898,1895,1883,1857,1836,1832,1848,1811,1775,1745,1772,1723,1689,1676,1673,1651,1630,1628,1620,1618,1588,1584,1567,1573,1513,1484,1490,1467,1458,1420,1403,1439,1415,1383,1381,1381,1362,1330,1318,1326,1296,1299,1272,1288,1278,1263,1253,1240,1244,1233,1223,1224,1210,1214,1229,1275,1258,1242,1221,1197,1172,1157,1129,1110,1144,1172,1180,1193,1219,1257,1251,1228,1212,1218,1247,1248,1256,1260,1265,1276,1272,1270,1278,1281,1286,1289,1300,1315,1319,1337,1352,1369,1375,1380,1375,1360,1361,1357,1360,1352,1346,1342,1338,1335,1327,1325,1320,1318,1313,1309,1303,1298,1294,1287,1284,1278,1272,1272,1264,1263,1250,1246,1241,1236,1232,1231,1219,1215,1213,1204,1206,1202,1192,1184,1179,1176,1173,1163,1171,1174,1160
207,195,190,191,188,188,198,235,277,332,376,426,481,526,647,788,880,828,677,588,519,493,472,444,413,377,346,328,318,321,323,329,333,329,336,341,322,361,347,337,328,313,313,279,244,215,187,144,111,157,227,276,355,485,514,461,447,492,355,299,390,368,399,320,349,533,412,255,273,288,299,295,331,273,393,386,403,381,478,412,479,499,485,475,452,448,467,493,469,475,551,578,602,625,641,663,679,698,719,737,785,840,776,823,820,855,857,844,898,978,1086,1269,1045,1070,1435,1196,1084,1151,998,1072,1326,1627,1480,1657,1425,1371,1702,1557,1429,1415,1261,1250,1071,1040,1076,1309,1240,1318,1375,1605,1672,1853,2010,1863,1661,1442,1708,1680,1488,1210,899,837,935,799,951,1062,917,1087,1156,1178,1180,1201,1221,1276,1329,1612,1465,1208,1114,1183,975,931,1070,1050,1025,781,733,777,938,1312,1419,1382,1499,1498,1638,1584,1456,1363,1229,1176,1224,1254,1300,1356,1436,1460,1457,1433,1539,1277,1290,1199,1399,1487,1412,1425,1622,1540,1605,1515,1503,1652,1644,1676,1686,1708,1791,1765,1790,1866,1896,2000,2005,1995,1978,1761,1891,1811,1911,2220,2217,1994,1960,1873,1976,2032,1917,1723,1959,1928,1785,2038,1895,1762,1858,1889,1939,1928,1876,1927,2076,1951,1868,1928,1958,1928,1919,1927,1938,1971,1913,2011,2071,2051,2048,2081,2143,2309,2262,2253,2210,2250,2284,2337,2375,2409,2447,2534,2624,2611,2664,2686,2649,2696,2726,2734,2716,2708,2595,2427,2383,2349,2329,2264,2244,2180,2196,2158,2144,2125,2142,2143,2152,2200,2236,2249,2260,2242,2191,2198,2211,2241,2229,2217,2346,2376,2359,2372,2398,2418,2356,2340,2300,2325,2241,2244,2282,2310,2350,2448,2431,2385,2445,2543,2381,2464,2392,2398,2433,2449,2594,2597,2587,2565,2549,2512,2523,2381,2453,2442,2480,2560,2492,2487,2403,2328,2332,2269,2279,2227,2203,2191,2198,2197,2340,2244,2233,2236,2235,2216,2200,2205,2185,2226,2252,2210,2183,2147,2143,2138,2135,2132,2126,2151,2141,2176,2168,2166,2160,2159,2150,2145,2142,2151,2219,2195,2165,2172,2153,2130,2112,2138,2161,2245,2298,2395,2562,2746,2429,2436,2120,2364,2265,1979,1907,1851,1744,1679,1700,1618,1545,1492,1452,1401,1397,1446,1504,1533,1536,1596,1787,1712,1690,1720,1681,1642,1643,1630,1635,1657,1633,1598,1583,1583,1582,1594,1613,1623,1643,1670,1709,1765,1773,1789,1787,1808,1845,1930,1924,1996,2068,2063,1990,1862,1814,1811,1818,1854,1847,1820,1795,1775,1741,1736,1753,1763,1791,1839,1831,1822,1827,1855,1931,1898,1939,2012,2021,2062,2027,1983,1963,1932,1913,1883,1881,1878,1864,1839,1811,1806,1771,1798,1788,1768,1761,1749,1726,1706,1651,1670,1656,1621,1617,1598,1582,1548,1517,1505,1479,1478,1478,1464,1454,1452,1429,1388,1389,1382,1367,1326,1307,1323,1297,1292,1325,1319,1316,1284,1268,1274,1259,1264,1255,1254,1243,1236,1256,1277,1273,1258,1231,1206,1187,1170,1154,1135,1110,1137,1155,1169,1181,1197,1244,1240,1231,1221,1233,1232,1256,1263,1264,1281,1276,1280,1280,1283,1287,1291,1296,1308,1321,1334,1348,1370,1376,1381,1384,1387,1368,1361,1359,1356,1356,1352,1347,1340,1338,1333,1329,1325,1320,1311,1309,1303,1301,1294,1289,1288,1280,1274,1267,1262,1260,1254,1248,1239,1238,1231,1232,1221,1215,1209,1207,1202,1196,1192,1191,1181,1175,1172,1169,1166,1173,1164
190,191,191,188,192,198,208,247,297,349,401,450,492,577,650,680,800,1051,816,601,559,528,495,472,410,378,350,330,343,344,356,360,361,364,369,376,363,393,405,396,414,421,372,310,310,248,195,182,173,114,175,275,398,397,522,445,460,512,272,299,272,289,259,266,296,344,328,291,244,232,285,244,275,338,392,631,499,499,421,345,358,427,423,421,419,440,463,448,497,544,570,605,627,646,658,668,677,693,709,748,813,859,850,829,848,880,892,891,956,907,1010,1051,1105,1181,1162,1110,1050,1007,1028,1201,1650,1519,1467,1435,1462,1678,1887,1609,1441,1378,1212,1131,1077,1037,1068,1303,1203,1265,1383,1671,1879,1806,2020,2023,2045,1596,1213,1384,1474,1111,881,981,1006,826,853,1033,929,1105,1149,1181,1152,1177,1204,1279,1500,1443,1473,1448,1167,1157,1016,1008,1013,1297,1218,943,733,847,1084,1158,1363,1479,1427,1543,1451,1237,1103,1084,1076,1136,1191,1262,1441,1444,1478,1501,1522,1543,1691,1460,1515,1357,1408,1588,1195,1584,1378,1399,1607,1398,1472,1485,1688,1670,1735,1817,2080,2063,1977,2074,2030,2056,2043,2028,1910,1943,2029,1887,1961,2228,2081,2158,2005,2142,2135,2055,1817,1849,1825,1794,1755,1962,1951,1804,1922,1922,1998,2015,2006,2170,2105,2039,1917,1894,2041,1918,2020,1994,1922,1988,1977,1965,2049,2034,2039,2052,2116,2222,2174,2211,2233,2241,2279,2306,2375,2473,2397,2454,2508,2599,2569,2597,2584,2621,2675,2709,2644,2563,2499,2408,2346,2310,2305,2272,2230,2173,2180,2172,2125,2115,2145,2170,2191,2165,2230,2234,2184,2190,2171,2220,2207,2213,2196,2322,2340,2349,2332,2393,2421,2401,2388,2340,2304,2286,2229,2249,2257,2277,2369,2347,2328,2358,2320,2390,2362,2425,2359,2573,2424,2412,2596,2421,2359,2554,2495,2513,2501,2346,2336,2343,2352,2375,2445,2448,2449,2417,2339,2324,2280,2252,2199,2237,2227,2209,2282,2320,2268,2295,2334,2324,2291,2237,2237,2239,2279,2263,2215,2162,2152,2145,2140,2136,2133,2127,2128,2149,2135,2142,2139,2140,2135,2136,2138,2142,2165,2191,2188,2163,2113,2089,2085,2112,2154,2224,2310,2331,2397,2728,2608,2546,2193,2073,1942,1909,1872,1829,1773,1705,1760,1773,1542,1488,1456,1400,1398,1445,1492,1509,1587,1627,1675,1709,1706,1717,1747,1663,1654,1662,1663,1713,1658,1620,1603,1593,1589,1608,1619,1634,1643,1666,1694,1737,1758,1802,1822,1845,1913,1877,1914,1961,1978,2006,1927,1845,1828,1832,1849,1884,1881,1844,1803,1764,1784,1772,1761,1787,1825,1823,1852,1843,1844,1839,1869,1896,2000,2003,1991,1986,1969,1959,1949,1913,1896,1886,1898,1849,1849,1830,1827,1805,1825,1795,1794,1768,1737,1703,1696,1684,1699,1694,1638,1612,1613,1569,1555,1551,1513,1512,1494,1467,1434,1439,1424,1463,1433,1380,1350,1343,1329,1338,1327,1334,1320,1348,1337,1333,1315,1293,1292,1296,1277,1285,1281,1290,1278,1290,1266,1258,1231,1242,1239,1219,1190,1170,1159,1139,1115,1138,1179,1182,1190,1237,1238,1234,1221,1233,1246,1253,1246,1253,1267,1276,1281,1286,1288,1291,1295,1297,1302,1314,1326,1350,1375,1380,1391,1394,1398,1395,1368,1359,1350,1357,1358,1356,1347,1344,1337,1333,1329,1331,1323,1312,1307,1307,1299,1288,1291,1283,1277,1275,1267,1262,1258,1250,1240,1235,1229,1224,1222,1223,1214,1211,1209,1210,1199,1197,1189,1182,1175,1173,1171,1169,1165,1165
192,194,195,199,202,206,224,257,308,364,414,477,532,680,725,826,888,957,718,637,580,657,548,452,394,372,358,351,364,374,384,388,411,407,404,409,408,467,458,460,608,493,474,394,310,359,231,228,223,149,118,163,185,215,407,484,483,306,172,177,199,179,190,194,200,216,207,293,361,327,370,339,324,342,508,544,585,563,526,351,-32768,370,384,397,418,431,458,421,487,540,606,639,654,674,682,688,692,705,726,771,980,941,850,855,855,876,909,932,950,981,941,940,1051,1055,1073,1002,1026,1044,1163,1518,1752,1515,1432,1385,1497,1570,1770,1639,1661,1360,1239,1164,1086,1059,1097,1110,1272,1251,1354,1742,1910,1796,2062,2009,1994,1652,1530,1229,1122,1008,930,1004,919,852,864,976,1006,1011,1093,1134,1170,1168,1194,1273,1411,1355,1574,1638,1457,1214,1126,1112,1159,1307,1205,1048,727,839,1078,1257,1371,1551,1572,1395,1045,1059,1073,1032,1121,1172,1183,1297,1501,1491,1495,1538,1547,1467,1427,1392,1413,1390,1468,1593,1422,1489,1649,1269,1336,1438,1474,1618,1632,1671,1683,1877,2044,2077,1971,2050,2157,2101,2101,2109,1884,1877,2050,1942,2263,2281,2161,2148,2178,2120,2034,1843,1960,1924,1820,1926,1826,2009,1924,1915,1971,1936,2131,2013,2083,2090,2018,2004,1900,1906,1993,1950,1978,2052,1978,2022,2001,2018,2017,1647,2049,2123,2103,2145,2165,2187,2225,2319,2287,2318,2322,2348,2353,2401,2486,2426,2465,2463,2501,2543,2528,2601,2555,2504,2433,2478,2347,2345,2265,2236,2173,2158,2127,2118,2148,2109,2174,2208,2272,2217,2212,2209,2157,2153,2157,2185,2217,2192,2248,2308,2334,2329,2313,2357,2388,2384,2406,2326,2290,2254,2226,2223,2242,2259,2270,2309,2289,2280,2296,2343,2351,2309,2384,2677,2411,2352,2407,2349,2376,2577,2595,2549,2389,2337,2302,2325,2299,2327,2410,2513,2701,2398,2361,2352,2288,2253,2219,2275,2242,2215,2305,2330,2341,2357,2457,2464,2300,2268,2258,2267,2234,2211,2194,2168,2163,2156,2150,2141,2136,2129,2128,2122,2119,2125,2128,2130,2134,2139,2145,2171,2171,2176,2197,2158,2146,2089,2066,2100,2105,2147,2188,2232,2342,2646,2566,2377,2064,1967,1923,1878,1835,1817,1781,1856,1799,1629,1494,1456,1441,1399,1406,1463,1488,1545,1597,1579,1662,1668,1699,1721,1810,1675,1679,1697,1729,1762,1689,1643,1616,1598,1599,1622,1623,1640,1658,1677,1707,1766,1783,1812,1846,1867,1897,1943,1939,1975,1950,1942,1901,1850,1857,1858,1860,1876,1840,1827,1796,1773,1795,1796,1794,1778,1785,1786,1809,1846,1876,1878,1859,1894,1963,1975,1981,1972,1948,1936,1909,1900,1885,1890,1870,1870,1847,1820,1845,1829,1826,1824,1785,1762,1761,1751,1726,1709,1691,1670,1615,1592,1592,1583,1591,1556,1510,1512,1448,1451,1425,1433,1415,1426,1394,1409,1395,1376,1365,1360,1356,1374,1349,1354,1353,1332,1311,1299,1304,1323,1308,1312,1331,1371,1311,1265,1251,1278,1260,1235,1210,1218,1203,1178,1164,1148,1122,1126,1148,1159,1177,1194,1208,1237,1226,1240,1247,1259,1263,1268,1267,1280,1286,1293,1295,1293,1297,1309,1306,1316,1328,1350,1380,1392,1399,1408,1411,1395,1373,1363,1352,1347,1348,1347,1350,1342,1342,1336,1335,1326,1323,1315,1310,1307,1299,1291,1282,1275,1270,1263,1259,1254,1248,1244,1239,1231,1228,1226,1220,1215,1209,1205,1208,1204,1192,1195,1191,1181,1177,1175,1170,1172,1167,1162
192,190,200,208,213,217,234,268,310,363,450,506,568,702,726,801,1075,826,730,658,615,798,612,435,412,393,367,375,391,441,418,504,521,454,440,463,493,524,545,589,678,570,552,505,454,414,366,264,288,198,164,186,153,492,567,263,158,172,205,300,210,216,204,232,236,256,430,300,348,405,450,465,461,507,581,532,515,525,445,369,-32768,347,384,387,405,419,407,448,462,498,541,552,582,620,697,710,709,720,746,784,842,867,888,828,827,868,903,942,981,1008,991,1009,960,986,991,1008,1087,1187,1580,1544,1670,1466,1428,1371,1389,1444,1510,1565,1538,1330,1302,1195,1119,1088,1116,1199,1251,1228,1379,1538,1752,1645,1829,1746,1964,1459,1296,1278,1115,969,922,986,925,965,935,1028,1045,1034,1022,1050,1136,1216,1261,1247,1328,1400,1466,1478,1591,1300,1253,1272,1169,1274,1309,1295,843,926,1147,1241,1356,1183,912,1024,1092,1160,1136,1121,1190,1166,1187,1229,1380,1537,1487,1508,1527,1503,1496,1412,1440,1441,1541,1660,1546,1511,1545,1289,1402,1563,1655,1781,1835,1769,1716,1926,1861,1923,2018,2041,2072,2133,2117,1858,2002,2023,1999,2065,2230,2228,2148,2022,2063,1893,1959,2039,1856,1933,1985,2007,1885,1906,2000,1988,1993,2031,1995,2057,2101,2099,2033,2013,1965,1947,1976,2021,2080,2102,2084,2009,2049,2029,2014,2008,2087,2136,2203,2159,2156,2160,2209,2224,2296,2305,2333,2368,2389,2353,2313,2280,2334,2378,2423,2424,2464,2464,2461,2431,2395,2360,2423,2264,2225,2180,2115,2099,2075,2096,2116,2126,2163,2229,2301,2232,2195,2120,2120,2131,2158,2167,2195,2217,2262,2302,2313,2314,2307,2301,2328,2382,2379,2305,2256,2200,2241,2210,2222,2262,2238,2264,2257,2257,2283,2338,2287,2280,2307,2401,2359,2306,2364,2417,2419,2430,2602,2588,2578,2363,2340,2263,2285,2325,2389,2448,2468,2519,2533,2460,2310,2283,2238,2311,2274,2248,2277,2428,2518,2442,2730,2488,2341,2288,2274,2292,2285,2249,2200,2182,2173,2162,2153,2145,2135,2128,2126,2124,2121,2129,2132,2141,2143,2155,2181,2347,2223,2214,2193,2156,2121,2078,2072,2065,2089,2095,2273,2147,2273,2679,2361,2168,1999,1924,1890,1856,1819,1781,1931,1891,1972,1830,1484,1443,1408,1399,1441,1469,1486,1539,1591,1628,1691,1689,1730,1732,1707,1701,1718,1737,1787,1771,1726,1662,1634,1613,1609,1620,1642,1653,1665,1684,1692,1766,1737,1768,1810,1837,1875,1970,1968,2021,2011,1998,1876,1863,1892,1882,1871,1865,1839,1839,1813,1784,1826,1794,1816,1798,1806,1835,1819,1819,1840,1851,1886,1914,1929,1978,1951,1957,1935,1934,1907,1880,1882,1855,1867,1855,1858,1860,1845,1853,1823,1798,1790,1813,1770,1754,1731,1690,1667,1636,1634,1588,1605,1617,1603,1561,1498,1487,1470,1470,1447,1454,1455,1416,1442,1427,1405,1369,1359,1374,1397,1389,1329,1378,1360,1342,1336,1322,1338,1333,1299,1331,1369,1362,1309,1273,1303,1286,1264,1238,1207,1197,1203,1190,1173,1159,1131,1121,1145,1168,1202,1194,1229,1226,1246,1244,1248,1251,1250,1245,1267,1280,1285,1289,1300,1307,1312,1315,1312,1318,1332,1347,1351,1384,1403,1417,1410,1396,1381,1368,1354,1347,1342,1341,1342,1344,1335,1339,1334,1330,1326,1315,1313,1302,1299,1293,1279,1275,1270,1261,1254,1245,1241,1239,1235,1231,1226,1222,1217,1213,1208,1205,1203,1203,1195,1196,1185,1179,1172,1164,1173,1169,1162,1159
214,202,210,220,225,228,241,277,312,360,525,624,647,685,748,886,1087,865,716,661,855,653,523,462,430,404,380,411,415,443,479,516,528,529,496,537,646,708,701,726,679,705,658,588,425,753,372,-32768,539,332,209,232,186,266,271,144,146,232,264,255,249,253,261,256,281,283,409,378,386,429,491,570,638,727,652,668,533,472,427,399,362,-32768,373,390,461,412,424,436,458,463,502,479,517,576,645,692,729,735,766,789,837,987,857,797,813,852,900,956,997,1047,1043,1021,1004,998,1015,1020,1148,1386,1416,1539,1488,1431,1383,1365,1350,1348,1454,1505,1421,1358,1388,1183,1228,1100,1128,1150,1190,1270,1438,1416,1610,1586,1850,1599,1554,1656,1328,1138,1069,1033,1029,988,1002,1068,1036,1055,1102,1059,1036,1104,1143,1220,1284,1261,1301,1387,1488,1580,1697,1697,1532,1476,1329,1299,1334,1165,965,737,1052,1025,849,902,1276,1251,1257,1297,1122,1163,1208,1228,1260,1334,1506,1563,1569,1524,1561,1488,1441,1433,1457,1504,1517,1772,1780,1748,1461,1383,1427,1577,1830,1717,1717,1756,1911,1877,1911,2024,2029,2238,2136,2113,2022,2079,2026,2026,1975,2094,2235,2220,2206,2217,2075,2110,1905,1983,1934,2001,2003,2000,1955,1941,2059,2042,2041,2079,2091,2108,2112,2118,2081,2091,1994,1980,1980,2037,2036,2039,2038,1999,2054,2011,1968,2001,2036,2104,2084,2104,2130,2123,2143,2198,2230,2233,2267,2322,2290,2277,2246,2219,2301,2324,2342,2363,2377,2373,2322,2318,2364,2329,2291,2237,2127,2095,2086,2047,2068,2067,2080,2055,2146,2187,2190,2187,2104,2163,2183,2194,2181,2223,2231,2259,2356,2294,2303,2325,2321,2294,2287,2337,2313,2343,2261,2205,2280,2224,2222,2304,2216,2215,2236,2227,2243,2269,2263,2313,2314,2315,2332,2375,2423,2487,2487,2489,2507,2619,2488,2354,2273,2242,2284,2328,2370,2427,2591,2647,2616,2475,2342,2299,2246,2313,2289,2296,2329,2459,2508,2792,2579,2438,2500,2317,2318,2324,2250,2294,2214,2193,2177,2167,2155,2148,2136,2130,2126,2123,2123,2137,2142,2161,2196,2177,2189,2349,2267,2252,2209,2156,2113,2102,2056,2034,2032,2035,2202,2104,2316,2631,2254,2011,1927,1868,1851,1825,1800,1767,1720,1710,2038,1684,1459,1419,1400,1396,1452,1493,1521,1557,1610,1622,1797,1748,1754,1760,1737,1746,1784,1744,1819,1880,1734,1679,1649,1628,1621,1632,1638,1664,1699,1698,1727,1722,1734,1773,1796,1820,1883,1923,1940,2012,2014,1987,1885,1879,1871,1911,1901,1875,1865,1852,1811,1824,1856,1825,1859,1850,1829,1850,1865,1890,1868,1867,1881,1938,1932,1983,1965,1947,1929,1931,1924,1904,1903,1891,1895,1885,1875,1861,1861,1844,1820,1819,1793,1787,1735,1717,1691,1659,1660,1656,1617,1620,1606,1606,1575,1532,1478,1580,1555,1512,1518,1505,1469,1459,1452,1418,1411,1410,1386,1368,1370,1360,1361,1366,1382,1360,1346,1343,1356,1324,1320,1360,1396,1350,1307,1335,1301,1281,1251,1228,1210,1193,1179,1184,1169,1140,1146,1125,1142,1161,1184,1189,1210,1226,1263,1242,1234,1225,1231,1241,1259,1278,1288,1302,1306,1310,1318,1322,1323,1334,1346,1347,1368,1366,1404,1400,1393,1382,1383,1368,1353,1345,1330,1341,1351,1357,1352,1342,1338,1334,1303,1314,1309,1299,1297,1294,1281,1277,1273,1265,1260,1256,1246,1237,1234,1224,1216,1214,1210,1205,1203,1200,1196,1196,1197,1193,1184,1174,1170,1170,1173,1170,1157,1157
252,230,223,228,238,243,252,289,335,389,604,747,722,783,905,997,865,786,723,705,674,561,596,521,432,402,403,421,435,503,559,584,639,578,592,785,860,975,761,857,723,581,753,719,685,411,332,447,397,276,220,215,134,-32768,156,172,223,304,328,365,270,285,287,304,319,341,350,386,424,450,492,549,667,745,686,625,528,476,470,484,389,374,345,375,371,371,377,382,391,402,406,413,446,503,537,597,644,682,776,822,1104,872,719,756,788,824,874,952,1010,1082,1116,1082,1050,1013,1033,1058,1232,1233,1367,1583,1515,1493,1415,1372,1350,1368,1432,1470,1438,1363,1248,1231,1138,1159,1308,1222,1211,1269,1412,1582,1517,1634,1658,1608,1415,1611,1627,1255,1208,1004,1114,1031,1167,1088,1124,1122,1147,1080,1024,1105,1195,1224,1308,1263,1307,1472,1485,1637,1616,1678,1787,1821,1645,1422,1494,1080,849,783,843,855,1167,1041,1318,1203,1309,1400,1346,1221,1251,1308,1350,1285,1466,1508,1532,1537,1568,1536,1494,1469,1507,1530,1543,1539,1621,1783,1733,1708,1627,1602,1813,1820,1889,2034,1858,2003,2009,1925,1980,2138,2325,2106,1953,2066,2103,2037,2122,2064,2203,2202,2206,2143,2149,2115,1961,2011,2072,2127,1994,2068,2021,2021,1989,2064,2058,2098,2114,2122,2095,2052,2068,2078,2087,2097,2031,2039,1990,1975,1981,1970,1980,1976,1967,1999,2011,2059,2046,2060,2069,2098,2114,2150,2315,2201,2198,2251,2204,2209,2165,2193,2233,2245,2290,2317,2362,2337,2328,2278,2315,2240,2224,2195,2176,2110,2056,2032,2024,2036,2064,2106,2140,2144,2142,2091,2131,2161,2202,2236,2244,2209,2252,2269,2277,2290,2366,2315,2366,2296,2329,2319,2264,2281,2258,2191,2233,2195,2247,2263,2207,2200,2198,2214,2227,2242,2271,2362,2394,2340,2366,2386,2448,2581,2585,2563,2687,2620,2348,2290,2244,2248,2290,2337,2381,2424,2519,2718,2940,2510,2417,2301,2264,2369,2350,2287,2336,2334,2423,2834,2670,2410,2350,2347,2293,2263,2229,2221,2203,2192,2181,2170,2159,2149,2138,2133,2128,2124,2128,2139,2158,2186,2222,2215,2213,2228,2250,2226,2194,2158,2111,2100,2065,2053,2020,1988,2015,2038,2136,2467,2061,1908,1845,1820,1810,1802,1781,1780,1842,1723,1689,1542,1469,1432,1401,1403,1465,1486,1533,1578,1570,1626,1879,1783,1784,1810,1764,1787,1835,1787,1846,1915,1765,1705,1667,1639,1625,1640,1655,1673,1683,1704,1741,1791,1742,1771,1797,1827,1868,1923,1987,2045,2023,1961,1884,1907,1874,1896,1911,1886,1898,1860,1843,1849,1862,1827,1879,1895,1867,1879,1901,1895,1937,1855,1931,1917,1966,2005,1963,2009,1963,1954,1933,1927,1908,1896,1889,1886,1873,1900,1875,1851,1827,1810,1817,1781,1757,1731,1701,1667,1651,1659,1631,1612,1609,1585,1574,1537,1515,1527,1551,1529,1552,1519,1471,1450,1411,1431,1406,1392,1413,1396,1367,1384,1366,1368,1401,1368,1355,1359,1355,1338,1339,1377,1396,1367,1355,1322,1269,1243,1249,1235,1230,1213,1191,1172,1175,1161,1145,1125,1156,1179,1179,1187,1224,1221,1225,1221,1216,1223,1230,1239,1247,1266,1288,1301,1327,1323,1328,1329,1334,1324,1361,1374,1400,1411,1407,1386,1380,1368,1377,1369,1364,1350,1344,1339,1342,1347,1343,1337,1335,1321,1316,1313,1311,1300,1298,1292,1287,1280,1275,1268,1263,1254,1250,1242,1236,1229,1223,1215,1208,1207,1198,1197,1197,1192,1189,1196,1184,1174,1174,1176,1176,1170,1165,1157
298,267,253,255,251,260,268,306,353,413,512,590,776,949,1139,1024,891,794,740,683,677,565,564,512,424,400,413,446,452,480,516,520,527,556,586,590,676,948,1102,921,818,630,451,-32768,577,572,418,355,416,332,216,-32768,244,211,297,268,304,323,414,308,294,313,315,341,358,392,410,420,444,470,515,579,607,660,728,594,566,504,551,446,428,552,445,351,384,473,431,474,462,487,477,481,427,455,469,585,588,746,832,871,1042,838,684,711,758,810,870,971,1024,1080,1239,1097,1039,1046,1031,1059,1068,1230,1407,1647,1609,1433,1384,1392,1350,1369,1334,1430,1394,1363,1328,1214,1172,1294,1372,1249,1259,1319,1428,1689,1798,1711,1633,1547,1490,1520,1482,1171,1076,1047,1172,1183,1157,1239,1174,1113,1096,1181,1040,1146,1152,1190,1249,1285,1367,1544,1558,1530,1785,1830,1828,1915,1740,1460,1144,972,858,829,864,1259,1312,1261,1289,1502,1391,1451,1443,1348,1369,1450,1567,1576,1357,1414,1496,1551,1560,1588,1613,1578,1566,1609,1791,1624,1646,1661,1790,1660,1581,1881,1880,2032,1968,1943,1887,1940,1929,2017,2316,2344,2314,2027,1960,2229,2239,2165,2218,2230,2248,2214,2222,2229,2184,2043,2056,2112,2123,2050,2039,1976,2034,2069,2090,2078,2097,2071,2102,2118,2097,2086,2065,2037,2077,2051,2001,1978,1965,1961,1939,1948,1950,1938,1961,1978,2013,2000,2045,2027,2042,2086,2106,2130,2116,2119,2127,2140,2250,2147,2201,2152,2150,2177,2215,2316,2309,2280,2255,2234,2238,2205,2230,2096,2101,2010,2034,2040,2016,2033,2028,2091,2122,2076,2091,2083,2147,2161,2159,2210,2213,2248,2281,2256,2275,2355,1997,2404,2366,2319,2322,2296,2235,2223,2255,2204,2186,2200,2210,2254,2221,2191,2194,2195,2214,2241,2249,2292,2284,2233,2393,2462,2469,2782,2680,2612,2817,2487,2339,2278,2239,2238,2288,2341,2376,2419,2485,2623,2599,2439,2344,2417,2308,2312,2329,2311,2300,2422,2379,2476,2509,2520,2434,2357,2289,2355,2318,2298,2227,2201,2181,2166,2157,2146,2139,2134,2130,2127,2131,2147,2173,2202,2240,2276,2246,2246,2251,2254,2203,2154,2099,2069,2065,2071,2015,1983,2002,1976,2083,2270,1918,1846,1815,1792,1784,1787,1794,1852,1768,1636,1560,1513,1472,1461,1405,1402,1454,1488,1546,1559,1596,1697,1738,1764,1846,1895,1787,1839,1872,1842,1904,1884,1775,1714,1665,1655,1638,1646,1663,1671,1692,1710,1742,1787,1778,1776,1814,1873,1884,1915,1953,1991,2036,1938,1893,1910,1902,1862,1874,1884,1919,1888,1856,1868,1879,1873,1914,1896,1920,1929,1929,1927,1936,1893,1890,1967,1983,1992,2001,1983,1998,1956,1946,1934,1921,1919,1899,1913,1873,1895,1847,1833,1818,1800,1762,1767,1735,1707,1682,1662,1629,1614,1612,1615,1583,1570,1578,1542,1525,1577,1546,1506,1525,1492,1476,1441,1443,1422,1450,1436,1417,1407,1386,1410,1409,1381,1384,1376,1361,1339,1362,1341,1360,1382,1357,1318,1335,1318,1305,1287,1271,1258,1242,1223,1207,1190,1176,1159,1147,1131,1150,1187,1183,1184,1193,1205,1214,1209,1210,1214,1222,1236,1260,1285,1305,1309,1322,1329,1334,1347,1356,1340,1360,1409,1413,1416,1409,1383,1369,1349,1360,1367,1364,1358,1353,1346,1350,1349,1350,1343,1347,1330,1323,1323,1317,1310,1306,1297,1291,1282,1279,1272,1266,1257,1248,1238,1232,1226,1221,1216,1209,1206,1202,1196,1190,1186,1185,1200,1187,1176,1165,1176,1174,1166,1162,1160
446,322,303,291,281,270,279,320,364,418,478,558,871,936,943,1022,908,825,926,969,689,519,481,451,423,405,444,438,448,447,458,472,484,557,527,528,581,645,702,839,937,741,673,603,534,486,369,296,442,201,135,181,263,318,297,308,361,456,381,328,324,345,354,375,397,416,556,465,507,508,553,604,628,725,701,583,554,616,532,553,598,620,516,363,437,504,627,551,670,604,648,564,490,547,642,453,591,859,927,951,860,625,669,704,895,842,954,947,1016,1309,1207,1105,1057,1072,1057,1177,1263,1613,1451,1876,1614,1494,1466,1416,1367,1362,1352,1399,1387,1364,1357,1192,1230,1257,1283,1293,1361,1367,1388,1704,1935,1687,1629,1569,1521,1344,1243,1281,1191,1113,1239,1255,1188,1197,1172,1132,1113,1065,1089,1267,1347,1251,1260,1272,1441,1421,1469,1437,1591,1818,1709,1792,1631,1199,1075,912,1074,782,971,1340,1396,1460,1553,1590,1493,1503,1525,1558,1441,1508,1537,1647,1474,1461,1435,1484,1477,1529,1552,1640,1629,1903,1837,1827,1806,1797,1745,1700,1666,1915,1913,1848,1830,1896,1948,1941,2013,2244,2315,2323,2312,2133,2057,2132,2278,2209,2320,2285,2321,2326,2312,2276,2185,2195,2215,2195,2150,2098,2073,2078,2091,2114,2140,2145,2152,2043,2057,2135,2153,2096,2043,2002,2031,2063,2029,1934,1958,1900,1919,1916,1928,1934,1943,1950,1956,1975,1981,2010,2044,2070,2074,2085,2088,2038,2052,2106,2133,2128,2102,2120,2110,2130,2213,2247,2475,2243,2228,2201,2186,2129,2125,2056,1993,1977,1983,1979,1991,2017,2041,2042,2065,2073,2047,2054,2155,2100,2132,2195,2206,2227,2232,2232,2256,2243,2351,2317,2295,2311,2330,2285,2233,2190,2205,2160,2176,2178,2206,2219,2211,2170,2201,2225,2202,2220,2245,2296,2344,2214,2322,2343,2460,2517,2438,2484,2499,2374,2333,2266,2223,2237,2289,2329,2360,2403,2475,2449,2414,2395,2360,2377,2288,2298,2434,2353,2335,2440,2360,2444,2485,2398,2377,2313,2312,2408,2322,2283,2236,2211,2196,2170,2156,2147,2137,2134,2132,2129,2130,2159,2201,2244,2388,2338,2291,2299,2301,2273,2233,2167,2107,2063,2034,2036,1999,1940,1953,2029,1932,1902,1857,1828,1806,1788,1776,1802,1838,1876,1888,1679,1538,1516,1463,1459,1409,1443,1479,1507,1557,1556,1611,1662,1796,1756,1805,1893,1838,1913,1862,1884,1922,1836,1761,1708,1678,1713,1659,1661,1671,1685,1705,1724,1741,1795,1812,1822,1826,1835,1889,1914,1952,1961,1948,1895,1861,1866,1860,1876,1869,1863,1887,1865,1848,1850,1889,1904,1882,1939,1935,1961,1921,1949,1923,1943,1914,1957,2018,2036,2031,2028,2027,1970,1960,1942,1915,1888,1875,1846,1835,1857,1818,1797,1772,1775,1762,1742,1724,1680,1646,1646,1621,1599,1591,1598,1605,1609,1582,1551,1538,1552,1553,1508,1479,1473,1449,1444,1480,1482,1467,1435,1399,1413,1406,1400,1404,1415,1384,1386,1370,1367,1363,1369,1385,1382,1353,1297,1288,1322,1337,1313,1293,1274,1253,1231,1207,1183,1176,1168,1143,1142,1144,1156,1160,1175,1181,1187,1196,1201,1204,1217,1228,1244,1254,1275,1291,1314,1327,1340,1352,1367,1391,1353,1362,1412,1419,1402,1384,1375,1363,1341,1351,1362,1379,1374,1359,1357,1358,1359,1361,1360,1356,1347,1337,1327,1316,1319,1312,1304,1300,1291,1285,1277,1270,1262,1255,1246,1237,1227,1221,1218,1209,1207,1201,1200,1192,1187,1184,1201,1188,1180,1176,1176,1169,1167,1166,1154
557,388,353,331,317,300,292,329,378,431,500,559,677,742,995,861,805,914,983,635,561,512,472,442,420,400,404,413,421,426,430,436,449,472,560,473,481,486,505,673,747,591,672,442,233,302,296,248,186,141,167,262,301,320,372,457,554,436,391,335,354,373,408,416,423,440,461,509,539,547,642,636,660,678,610,623,736,689,574,521,514,459,365,396,464,534,590,662,770,794,720,656,647,776,683,684,626,495,560,652,562,648,679,661,845,874,857,918,970,1061,1202,1035,1047,1055,1082,1148,1304,1623,1485,1532,1614,1595,1484,1372,1350,1269,1341,1255,1377,1305,1263,1257,1254,1361,1394,1334,1421,1580,1612,1695,1988,1717,1760,1549,1636,1349,1369,1347,1344,1354,1294,1246,1209,1201,1174,1140,1087,1112,1116,1273,1266,1270,1418,1355,1335,1395,1468,1476,1620,1681,1831,1912,1454,1168,1026,1014,829,1103,999,1027,1391,1584,1647,1659,1632,1627,1754,1705,1645,1606,1587,1568,1486,1505,1464,1462,1507,1518,1573,1707,1796,1783,1779,1797,1794,1758,1758,1780,1674,1751,1763,1846,1899,1997,2249,2328,2308,2302,2295,2315,2304,2325,2285,2288,2346,2290,2258,2237,2255,2242,2272,2220,2187,2155,2166,2168,2174,2180,2154,2172,2160,2149,2136,2094,2057,2043,2027,2079,2070,2070,2007,1954,1981,2003,1945,1906,1898,1873,1893,1938,1946,1946,1949,1933,1931,1947,1969,1988,2008,1999,2004,2007,2015,2082,2079,2107,2110,2094,2094,2064,2058,2084,2130,2219,2290,2215,2171,2133,2098,2108,2058,2044,1994,1945,1926,1937,1952,1975,2053,2010,2028,2017,2023,2044,2063,2216,2229,2186,2188,2207,2222,2242,2182,2236,2304,2257,2288,2273,2261,2205,2202,2202,2224,2176,2176,2146,2218,2184,2177,2228,2333,2310,2205,2256,2257,2299,2382,2203,2234,2364,2315,2413,2331,2326,2347,2303,2283,2229,2201,2242,2265,2305,2356,2404,2467,2375,2365,2351,2326,2299,2264,2326,2369,2327,2355,2326,2417,2480,2485,2463,2322,2313,2305,2354,2349,2296,2261,2238,2205,2188,2163,2145,2138,2136,2130,2131,2135,2197,2380,2359,2332,2375,2339,2395,2323,2237,2195,2144,2117,2073,2033,2008,1967,1942,1924,1905,1877,1870,1855,1827,1806,1787,1794,1815,1854,2050,1740,1698,1595,1535,1474,1423,1407,1484,1486,1510,1579,1572,1603,1654,1722,1785,1790,1790,1883,1916,1902,1978,1999,1792,1749,1718,1687,1768,1671,1684,1675,1708,1714,1737,1748,1806,1828,1859,1875,1925,1894,1923,1949,1956,1981,1939,1871,1857,1862,1864,1872,1887,1872,1885,1902,1892,1897,1937,1897,1918,1962,1995,1953,1988,1960,1929,1964,1979,2072,2043,2019,2030,1997,1976,1953,1937,1924,1875,1848,1833,1792,1804,1812,1808,1753,1734,1727,1714,1705,1695,1695,1650,1636,1587,1590,1584,1574,1560,1553,1559,1571,1557,1545,1544,1511,1515,1495,1488,1528,1503,1435,1412,1436,1442,1419,1385,1428,1413,1395,1395,1369,1365,1370,1339,1344,1349,1309,1291,1273,1257,1297,1305,1272,1253,1257,1232,1210,1193,1185,1163,1134,1143,1153,1164,1167,1177,1178,1187,1189,1198,1208,1217,1231,1238,1256,1272,1274,1302,1329,1351,1366,1400,1409,1365,1366,1403,1411,1389,1375,1350,1356,1346,1345,1363,1384,1377,1374,1369,1365,1369,1373,1369,1365,1356,1346,1336,1330,1329,1323,1312,1306,1300,1293,1283,1275,1270,1261,1249,1244,1233,1226,1218,1211,1208,1200,1199,1193,1191,1190,1189,1187,1180,1177,1180,1174,1171,1162,1156
487,446,399,376,353,334,311,330,384,442,519,571,633,698,752,766,751,694,694,642,538,496,459,427,408,389,385,393,390,395,405,408,422,403,400,436,441,504,425,424,495,534,467,343,220,387,229,-32768,141,160,201,279,303,387,457,674,580,460,388,371,381,408,433,444,475,482,528,531,543,580,594,632,724,710,666,799,822,679,637,582,619,446,383,462,612,634,690,732,827,830,878,767,791,800,972,970,766,770,568,593,575,604,631,655,803,883,850,893,956,1084,1125,1067,1072,1065,1100,1192,1227,1309,1315,1372,1587,1517,1411,1357,1313,1257,1246,1259,1291,1408,1369,1307,1216,1370,1491,1504,1501,1632,1749,1798,1795,1746,1761,1767,1872,1451,1494,1466,1371,1346,1338,1270,1208,1208,1163,1132,1109,1126,1177,1241,1237,1244,1284,1253,1321,1429,1448,1594,1625,1760,1891,1818,1439,1181,1154,934,802,1281,1150,1104,1497,1664,1728,1654,1705,1750,1834,1779,1560,1490,1630,1703,1682,1485,1498,1500,1506,1549,1682,1685,1669,1743,1754,1769,1831,1819,1769,1746,1770,1877,1951,1838,2059,2220,2336,2301,2302,2313,2311,2330,2334,2322,2297,2294,2327,2271,2233,2232,2192,2148,2160,2161,2123,2104,2131,2119,2182,2167,2098,2129,2125,2158,2110,2109,2126,2031,1992,2063,2048,2004,1960,1952,1948,2000,1941,1942,1886,1883,1879,1912,1947,1944,1945,1937,1932,1943,1963,1950,1945,1955,2019,1978,2094,2095,2086,2114,2105,2078,2078,2066,2041,2055,2087,2102,2203,2193,2127,2107,2059,2075,2031,1996,1971,1927,1909,1914,1869,1986,2022,1930,1982,2014,2023,2057,2105,2210,2170,2176,2177,2195,2212,2227,2158,2228,2225,2231,2237,2248,2224,2168,2193,2235,2331,2187,2143,2144,2135,2152,2194,2198,2254,2274,2245,2232,2282,2385,2263,2201,2195,2267,2364,2370,2338,2311,2309,2258,2238,2208,2199,2236,2252,2288,2335,2390,2454,2354,2332,2348,2312,2295,2283,2294,2331,2339,2361,2346,2429,2478,2489,2386,2383,2363,2332,2386,2588,2375,2305,2266,2235,2204,2181,2151,2136,2134,2136,2139,2148,2208,2394,2247,2312,2372,2389,2288,2278,2204,2199,2162,2100,2061,2025,2018,2016,1956,2078,1941,2045,1842,1836,1819,1799,1789,1798,1831,1871,1922,1782,1837,1637,1521,1456,1412,1410,1437,1500,1564,1573,1557,1624,1641,1670,1708,1744,1777,1919,2008,1957,1976,1986,1831,1772,1747,1694,1769,1699,1696,1705,1720,1727,1749,1762,1787,1816,1834,1937,1958,1945,1969,2009,2039,2049,1949,1877,1876,1859,1864,1867,1878,1878,1905,1908,1938,1919,1944,1939,1945,1962,2020,1999,2029,1978,1987,2014,2022,2069,2029,2001,2012,2021,1957,1935,1969,1920,1904,1876,1838,1817,1797,1778,1754,1743,1738,1734,1707,1680,1663,1666,1639,1621,1616,1611,1571,1570,1552,1562,1570,1612,1591,1578,1556,1528,1520,1506,1485,1485,1486,1442,1449,1455,1444,1404,1393,1403,1418,1410,1402,1388,1363,1363,1335,1312,1313,1340,1337,1304,1240,1228,1247,1242,1248,1235,1227,1211,1194,1187,1162,1135,1152,1184,1156,1172,1178,1177,1179,1185,1199,1207,1217,1222,1228,1238,1254,1264,1279,1322,1332,1385,1419,1386,1365,1379,1434,1411,1386,1373,1361,1352,1347,1351,1375,1391,1384,1382,1378,1382,1380,1378,1367,1361,1354,1352,1346,1335,1331,1325,1317,1311,1306,1299,1295,1286,1277,1269,1257,1245,1244,1234,1230,1221,1216,1209,1203,1203,1200,1197,1192,1182,1182,1180,1175,1175,1164,1169,1162
549,486,455,416,393,369,339,333,391,446,502,549,594,642,675,831,959,882,850,646,537,476,454,424,397,383,368,377,373,374,374,380,375,363,378,394,380,361,381,343,326,298,316,360,238,207,-32768,169,200,230,270,306,370,448,578,643,640,466,418,406,427,452,482,461,485,532,560,560,743,616,650,778,759,738,798,844,889,849,680,710,525,504,391,673,610,721,768,798,919,955,870,871,924,1013,1013,874,896,764,690,642,545,612,642,654,848,883,969,979,931,1069,1140,1219,1108,1094,1164,1203,1234,1268,1311,1406,1489,1386,1310,1343,1257,1228,1253,1269,1304,1330,1386,1447,1300,1419,1540,1521,1644,1713,1777,2053,1979,1776,1807,1729,1609,1581,1525,1445,1388,1354,1312,1244,1270,1206,1151,1134,1140,1153,1154,1239,1277,1277,1220,1304,1333,1423,1536,1513,1645,1772,1973,1557,1180,1122,934,846,972,1233,1072,1372,1256,1632,1790,1776,1799,1845,1912,1676,1625,1682,1712,1715,1656,1586,1661,1750,1848,1513,1691,1624,1704,1706,1735,1792,1830,1803,1760,1731,1948,2408,2350,2024,2339,2325,2325,2335,2321,2244,2312,2329,2335,2298,2286,2279,2272,2258,2199,2206,2115,2099,2142,2126,2095,2078,2099,2097,2099,2092,2103,2110,2068,2081,2096,2026,2041,2015,1972,2013,2029,1974,1945,1954,1946,1948,1920,1907,1906,1872,1868,1880,1915,1928,1927,1929,1922,1926,1929,1922,1919,1977,1969,1991,2041,2063,2110,2112,2049,2012,2063,2041,2036,2026,2043,2194,2144,2144,2068,2043,2079,1998,1988,1959,1946,1922,1939,1896,1874,1888,1914,1949,2004,2037,2077,2079,2094,2130,2153,2164,2176,2187,2203,2178,2213,2196,2206,2219,2215,2220,2141,2209,2247,2210,2272,2184,2147,2138,2123,2137,2159,2202,2219,2239,2258,2243,2296,2378,2282,2194,2174,2205,2335,2312,2308,2239,2263,2219,2204,2197,2206,2221,2244,2274,2303,2310,2345,2331,2311,2307,2327,2342,2325,2319,2336,2364,2393,2363,2415,2492,2543,2503,2502,2445,2366,2346,2420,2442,2339,2301,2261,2229,2194,2161,2142,2134,2134,2144,2156,2181,2209,2240,2328,2407,2418,2365,2244,2214,2193,2139,2099,2065,2080,2051,2041,2001,2042,1912,1859,1838,1825,1792,1799,1782,1800,1833,1866,1889,1932,1875,1656,1509,1431,1413,1412,1456,1495,1545,1559,1571,1594,1622,1655,1713,1736,1808,1856,2149,2000,2019,2088,1814,1940,1911,1710,1743,1723,1711,1724,1729,1745,1740,1744,1774,1816,1902,1924,1920,1961,1977,2044,2045,2009,1910,1901,1907,1869,1864,1892,1873,1885,1901,1910,1953,1945,1920,1987,1985,2000,2000,2028,2004,1985,1998,1993,2059,2056,2017,2039,1986,1982,1988,1958,1894,1888,1893,1880,1863,1885,1854,1839,1799,1754,1725,1748,1690,1668,1674,1655,1631,1643,1639,1602,1593,1571,1588,1565,1567,1546,1561,1553,1565,1525,1544,1504,1487,1460,1472,1435,1444,1439,1424,1422,1411,1439,1420,1403,1374,1369,1357,1341,1328,1298,1289,1271,1268,1259,1235,1231,1220,1219,1210,1195,1188,1184,1179,1161,1141,1142,1148,1189,1195,1159,1166,1171,1174,1180,1201,1232,1237,1232,1250,1245,1252,1268,1289,1308,1330,1358,1432,1389,1401,1432,1436,1431,1390,1368,1359,1348,1337,1337,1352,1358,1361,1377,1375,1376,1380,1348,1351,1337,1351,1349,1333,1325,1326,1330,1318,1315,1307,1306,1301,1285,1285,1276,1265,1259,1249,1248,1238,1231,1222,1218,1211,1205,1202,1198,1195,1189,1184,1183,1174,1178,1180,1178,1171
634,546,502,457,435,398,368,339,383,434,481,533,560,588,619,662,779,840,699,577,543,440,433,411,386,371,364,356,350,349,347,345,343,327,338,348,327,311,297,290,281,245,242,199,140,140,201,192,264,279,321,409,504,587,742,562,542,450,487,497,496,542,506,489,517,578,624,762,716,858,671,768,760,840,804,808,864,782,884,530,412,575,667,631,742,739,828,882,979,1080,1107,1083,1115,1078,980,1006,892,837,699,619,623,700,654,729,710,791,894,1067,977,1054,1182,1206,1153,1151,1224,1231,1266,1305,1355,1336,1326,1313,1205,1247,1222,1216,1256,1310,1332,1373,1404,1443,1379,1278,1450,1621,1719,1916,1981,2001,2109,1945,1966,1785,1717,1723,1574,1496,1389,1315,1298,1275,1244,1168,1146,1168,1144,1142,1168,1175,1236,1288,1315,1373,1390,1411,1466,1555,1672,1843,1779,1384,1065,891,920,1059,1156,1279,1058,1606,1540,1419,1420,1754,1813,1818,1881,1797,1647,1659,1833,1854,1710,1612,1691,1760,1732,1593,1664,1703,1717,1769,1786,1896,1988,1903,1857,1830,1963,2221,2355,2373,2392,2346,2348,2342,2324,2302,2305,2287,2294,2290,2277,2265,2256,2249,2222,2202,2169,2067,2097,2102,2075,2057,2115,2072,2060,2054,2087,2082,2058,2058,2046,2040,2001,1977,1940,1959,1965,1974,2004,1926,1957,1919,1894,1898,1858,1858,1820,1885,1924,1918,1899,1878,1898,1892,1870,1893,1930,1946,1961,2005,2032,2031,2047,2014,2003,1968,2023,1982,2104,2031,2058,2097,2142,2090,2150,2084,2017,1979,1977,1940,1932,1934,1936,1870,1882,1870,1908,1946,2023,2050,2092,2118,2124,2129,2148,2147,2172,2164,2197,2138,2128,2150,2179,2201,2220,2148,2155,2203,2220,2233,2193,2173,2156,2176,2151,2237,2189,2205,2215,2258,2275,2280,2321,2360,2230,2168,2162,2184,2224,2278,2276,2200,2189,2200,2190,2180,2208,2212,2227,2245,2257,2315,2294,2305,2280,2278,2331,2395,2341,2352,2363,2386,2405,2373,2438,2485,2420,2519,2563,2554,2404,2367,2554,2490,2439,2360,2323,2263,2202,2169,2145,2137,2138,2152,2168,2195,2231,2253,2309,2341,2517,2275,2241,2217,2183,2150,2098,2108,2120,2072,2031,2032,1942,1886,1835,1813,1811,1779,1788,1782,1794,1830,1809,1916,1943,1874,1643,1500,1425,1413,1414,1460,1523,1570,1608,1547,1587,1696,1688,1709,1814,1800,1843,2057,1989,2119,1888,1957,1892,1797,1727,1734,1746,1745,1739,1744,1729,1764,1741,1788,1822,1885,1949,1936,1942,1967,1989,1988,1934,1900,1906,1885,1882,1888,1898,1882,1890,1928,1932,1947,1955,1990,1978,1995,2030,2038,2073,2029,2043,2054,2042,2048,2023,2014,2002,2025,2030,1961,1969,1969,1896,1915,1910,1914,1892,1873,1846,1784,1766,1737,1698,1758,1707,1687,1665,1670,1673,1641,1629,1630,1569,1580,1611,1591,1562,1558,1547,1524,1513,1505,1497,1499,1464,1441,1443,1432,1435,1438,1440,1455,1442,1430,1402,1366,1366,1343,1328,1315,1294,1277,1269,1284,1272,1292,1280,1281,1268,1254,1226,1214,1193,1160,1142,1168,1150,1184,1203,1170,1152,1163,1179,1175,1184,1208,1245,1260,1255,1250,1262,1289,1274,1299,1360,1368,1374,1434,1424,1426,1429,1429,1432,1388,1364,1356,1342,1335,1336,1342,1340,1352,1347,1350,1363,1355,1333,1320,1319,1335,1349,1310,1322,1330,1321,1314,1310,1313,1306,1302,1294,1286,1271,1268,1263,1258,1250,1247,1242,1235,1228,1225,1222,1214,1199,1191,1189,1188,1179,1174,1170,1175,1180,1178
655,598,531,507,468,425,378,352,378,420,462,501,532,587,680,657,1026,654,635,568,482,437,409,391,374,361,346,339,336,322,321,312,308,302,300,308,292,263,257,261,319,209,201,165,182,228,292,343,297,328,370,429,612,714,609,512,516,472,471,517,591,575,592,540,583,598,621,656,670,733,729,781,782,708,728,756,784,831,696,475,398,470,766,750,786,930,912,976,1044,1134,1161,1177,1092,1042,1031,950,841,787,798,707,737,849,823,687,712,952,1015,1222,1093,1245,1203,1222,1245,1166,1195,1208,1246,1279,1282,1298,1290,1215,1187,1180,1200,1229,1274,1307,1351,1389,1439,1478,1470,1495,1728,1728,1798,1990,2233,2069,2237,2020,2018,1880,1866,1850,1626,1450,1358,1334,1340,1392,1294,1179,1179,1187,1189,1159,1245,1222,1309,1251,1324,1364,1372,1412,1507,1537,1685,1515,1311,1122,917,1126,1466,1406,1401,1251,1083,1100,1430,1752,1754,1688,1737,1852,1832,1950,1659,1728,2102,2182,1952,1648,1652,1717,1671,1630,1665,1749,1808,1903,1945,1958,2420,2046,2093,1994,2381,2369,2393,2392,2389,2366,2377,2332,2306,2285,2290,2299,2239,2284,2272,2259,2240,2214,2170,2137,2161,2126,2094,2073,2080,2058,2075,2083,2067,2043,2073,2025,2021,2050,2009,2023,1990,1945,1937,1923,1935,1961,1928,1945,1940,1894,1870,1866,1824,1814,1818,1858,1865,1884,1860,1854,1861,1870,1881,1922,1922,1938,1901,1929,1988,2041,2045,2049,1970,1943,1970,1956,2016,2009,2036,2039,2123,2060,2096,2038,1985,1967,1950,1939,1940,1951,1934,1853,1856,1850,1888,1964,2006,2081,2073,2089,2120,2127,2132,2152,2150,2174,2186,2191,2124,2156,2193,2164,2197,2115,2125,2132,2118,2150,2137,2104,2147,2107,2164,2174,2214,2223,2220,2257,2297,2307,2313,2329,2321,2162,2144,2172,2289,2256,2227,2168,2166,2188,2178,2199,2196,2205,2218,2225,2252,2323,2262,2282,2289,2342,2322,2417,2377,2348,2342,2410,2412,2406,2428,2512,2498,2571,2606,2695,2468,2415,2421,2581,2497,2466,2390,2300,2225,2186,2155,2149,2150,2174,2183,2210,2304,2308,2396,2353,2289,2222,2275,2214,2166,2129,2142,2153,2178,2085,2017,2000,2096,1867,1827,1793,1788,1781,1748,1767,1780,1812,1768,1791,1732,1701,1608,1502,1423,1415,1433,1492,1530,1532,1527,1535,1665,1599,1643,1693,1737,1764,1801,1867,1914,1893,1904,1936,1947,1818,1735,1740,1779,1795,1760,1766,1761,1757,1772,1857,1840,1934,1970,2001,2006,2012,1991,1974,1927,1923,1901,1890,1873,1901,1885,1888,1895,1908,1925,1958,1995,2009,1988,2013,2048,2064,2081,2068,2083,2072,2071,2060,2034,2021,2044,2061,2059,1963,1962,1994,1964,1962,1923,1937,1908,1874,1860,1810,1761,1754,1750,1757,1732,1718,1683,1700,1682,1680,1651,1610,1635,1628,1585,1572,1541,1535,1557,1552,1533,1508,1502,1462,1456,1434,1449,1428,1442,1459,1460,1471,1418,1396,1378,1362,1344,1334,1324,1304,1299,1279,1273,1295,1317,1310,1295,1285,1254,1224,1228,1207,1181,1160,1149,1192,1181,1179,1191,1172,1163,1158,1166,1180,1188,1208,1226,1258,1274,1296,1296,1308,1296,1310,1351,1354,1361,1376,1382,1372,1374,1382,1377,1371,1355,1339,1336,1324,1326,1330,1340,1362,1360,1341,1355,1345,1350,1311,1335,1338,1337,1331,1320,1311,1315,1291,1307,1317,1313,1303,1293,1282,1283,1276,1269,1267,1257,1250,1246,1233,1236,1233,1227,1215,1206,1200,1195,1190,1184,1173,1169,1168,1170,1175
